ncols 172
nrows 101
xllcenter -68.99583333333334
yllcenter 39.89583333333334
cellsize 0.08333333333333315
nodata_value -32768
95 163 200 234 234 176 192 246 436 332 427 376 497 448 484 390 426 392 227 257 348 242 235 327 378 311 454 395 377 364 86 301 303 445 458 404 285 92 118 31 349 119 304 400 294 381 352 184 60 157 158 -30 -92 -90 -94 -98 -63 -74 -64 -54 -66 -73 -85 -93 -100 -98 -94 -86 -79 -63 -60 -69 -70 -71 -76 -85 -94 -88 -65 -66 -69 -96 -108 -112 -106 -171 -225 -273 -301 -332 -352 -366 -388 -394 -403 -415 -419 -415 -423 -435 -444 -452 -461 -464 -463 -469 -458 -440 -396 -335 -295 -232 -175 -140 -89 -88 -118 -90 -117 -126 -92 -35 34 55 103 210 340 380 548 448 394 418 381 488 384 402 433 412 361 325 359 356 404 459 367 361 317 276 271 271 274 317 273 272 230 242 212 255 304 217 249 228 195 239 271 218 218 233 219 229 198 190
344 403 364 257 214 315 217 245 339 356 366 452 367 444 333 417 314 412 338 443 370 356 141 311 365 311 384 320 316 232 109 106 12 277 164 229 -9 -10 44 141 129 146 124 145 165 299 196 122 84 -40 -83 -87 -82 -78 -71 -46 -33 -30 -33 -38 -47 -58 -83 -81 -95 -93 -84 -94 -65 -66 -70 -74 -67 -73 -74 -84 -95 -76 -62 -66 -68 -72 -90 -84 -78 -73 -92 -104 -108 -137 -187 -230 -267 -316 -345 -363 -389 -399 -408 -418 -427 -439 -449 -453 -458 -452 -462 -466 -440 -373 -335 -248 -203 -194 -150 -135 -126 -143 -118 -75 -38 66 81 141 187 235 265 386 602 429 488 429 408 390 409 354 368 373 355 328 300 379 311 312 305 350 271 301 300 272 276 328 262 254 215 190 242 208 235 196 208 170 184 199 208 202 197 276 266 220 207 212
260 347 291 267 316 239 308 298 493 432 378 379 366 422 418 427 362 265 422 509 294 398 280 271 323 290 149 150 280 70 -3 73 -24 -13 -20 -22 -21 -24 -28 -30 -29 -12 18 30 117 40 14 -23 -55 -82 -81 -84 -79 -42 -16 -13 -17 -25 -29 -34 -50 -90 -99 -141 -91 -81 -85 -70 -76 -70 -58 -57 -66 -65 -73 -87 -91 -66 -60 -65 -87 -79 -78 -69 -66 -68 -67 -84 -73 -66 -68 -74 -92 -102 -199 -290 -343 -377 -403 -417 -430 -440 -446 -457 -473 -477 -465 -486 -482 -438 -380 -349 -276 -188 -176 -146 -110 -76 5 356 432 272 428 274 335 371 405 470 488 502 484 512 441 537 456 409 387 469 326 281 307 331 399 363 365 264 333 335 274 287 294 341 289 274 310 197 179 206 179 188 191 156 198 186 202 179 169 279 241 194 200 211
257 294 209 274 244 343 318 413 494 425 395 348 415 399 386 345 502 321 527 291 384 304 272 270 228 114 147 83 143 214 119 44 27 7 -4 -12 -24 -27 -29 -33 -38 -34 -21 -26 -35 -53 -74 -77 -76 -71 -61 -46 -14 -9 -2 -10 -23 -25 -29 -45 -75 -75 -91 -97 -74 -73 -64 -71 -68 -61 -58 -58 -64 -68 -74 -79 -84 -67 -70 -76 -84 -76 -69 -59 -58 -57 -69 -67 -59 -58 -60 -63 -58 -66 -80 -90 -115 -267 -349 -390 -424 -432 -461 -473 -483 -490 -482 -466 -480 -487 -449 -410 -321 -203 -155 -112 -47 222 461 263 112 149 398 434 469 406 550 501 545 445 441 419 517 522 442 434 455 384 417 424 394 397 362 354 289 275 267 285 259 274 290 303 326 280 245 228 212 233 199 199 136 167 182 243 151 169 177 211 162 164 168 240
212 243 260 225 301 286 433 366 503 448 428 428 449 262 307 430 381 457 380 369 164 236 110 242 64 254 128 284 320 235 222 242 225 203 163 55 51 45 8 -15 -34 -49 -53 -61 -65 -69 -73 -68 -57 -39 -19 -14 -3 1 -2 -21 -26 -32 -39 -77 -88 -68 -85 -84 -64 -60 -66 -70 -75 -79 -71 -62 -70 -68 -71 -81 -61 -64 -68 -78 -68 -62 -54 -55 -55 -55 -57 -57 -54 -55 -55 -53 -51 -50 -56 -66 -73 -88 -119 -268 -330 -405 -444 -467 -479 -487 -486 -479 -491 -492 -483 -443 -377 -207 -138 4 287 87 172 31 441 399 351 452 449 533 432 447 393 140 361 400 413 362 335 376 316 509 374 310 298 289 307 307 210 284 317 276 246 289 284 271 293 254 197 266 141 243 24 171 150 166 191 156 182 191 235 193 179 100 166 176
309 269 231 194 163 314 336 302 490 409 512 481 441 411 410 239 383 340 278 198 208 289 309 220 246 80 231 315 285 289 380 363 366 353 273 140 177 146 90 33 -26 -38 -46 -54 -46 -20 17 9 -2 -2 -2 -2 3 17 -13 -29 -32 -42 -59 -82 -78 -74 -81 -75 -63 -69 -66 -73 -76 -82 -74 -71 -72 -74 -72 -66 -63 -64 -70 -72 -64 -59 -55 -52 -53 -50 -52 -49 -43 -23 -18 -14 -14 -21 -27 -45 -55 -66 -77 -102 -232 -312 -388 -440 -472 -495 -507 -489 -503 -492 -501 -470 -418 -332 -162 -48 14 91 223 289 457 393 404 381 511 405 264 279 78 310 288 191 240 273 232 186 277 310 307 350 259 217 355 250 257 308 243 285 285 277 256 328 260 283 241 164 128 138 21 100 217 255 188 204 145 246 205 233 219 159 156 199
307 165 286 213 350 312 267 336 337 348 495 492 538 538 342 471 347 272 218 263 292 331 334 384 291 226 137 139 276 364 410 446 381 233 326 311 244 188 114 50 -13 -21 -30 -8 60 54 25 31 27 26 6 3 -2 -12 -27 -29 -37 -51 -72 -78 -76 -66 -60 -66 -70 -77 -74 -78 -75 -78 -73 -68 -66 -59 -58 -59 -62 -69 -66 -63 -61 -59 -55 -49 -46 -42 -39 -36 -31 -12 -18 -15 -25 -28 -30 -36 -46 -57 -62 -72 -85 -207 -312 -438 -442 -481 -508 -513 -518 -515 -506 -518 -438 -351 -272 -124 -21 452 496 423 276 315 339 324 314 252 193 136 -2 173 232 141 144 29 145 215 179 196 217 266 205 212 216 234 252 233 284 261 262 85 224 275 23 218 9 197 71 87 130 274 178 217 114 103 212 174 202 273 -2 180 292 133
263 206 242 327 275 399 257 385 423 322 403 396 463 440 389 357 346 322 146 222 300 383 436 271 244 298 282 132 203 187 302 342 273 252 209 286 249 183 136 62 9 15 34 65 93 71 56 37 33 5 2 -10 -16 -21 -27 -34 -49 -57 -66 -75 -52 -54 -58 -66 -73 -74 -73 -80 -69 -67 -59 -60 -56 -59 -57 -58 -66 -68 -74 -54 -56 -56 -48 -40 -37 -35 -33 -30 -24 -20 -16 -12 -17 -27 -28 -30 -40 -46 -55 -56 -66 -105 -236 -374 -450 -474 -503 -513 -505 -525 -523 -521 -464 -428 -361 -262 -37 80 186 68 81 189 135 206 137 2 -2 1 -13 -13 -27 -18 -14 -28 3 -2 47 65 40 87 2 237 79 183 209 285 321 262 151 179 169 117 104 74 10 96 131 138 252 2 316 230 173 -105 -126 9 65 112 192 147 -91 146
354 420 296 345 256 240 203 298 339 283 332 353 435 375 374 289 308 220 272 269 296 377 277 243 241 275 300 370 409 365 370 423 462 365 414 281 243 190 125 78 18 46 113 125 76 73 46 70 28 5 -10 -17 -18 -23 -27 -42 -49 -55 -63 -61 -37 -52 -64 -61 -71 -71 -70 -71 -73 -82 -67 -50 -54 -52 -57 -51 -62 -67 -74 -63 -60 -54 -45 -37 -31 -29 -24 -14 -4 -2 2 -17 -20 -17 -28 -30 -37 -45 -48 -54 -57 -73 -102 -313 -448 -475 -487 -492 -512 -516 -530 -499 -496 -475 -428 -350 -257 -55 -12 -33 -16 -91 -100 -120 -163 -196 -207 -227 -204 -198 -183 -218 -168 -170 -98 -67 -16 -245 -262 -170 -85 -140 -192 -122 -81 63 251 222 -57 -246 -194 -246 -304 -247 -260 -234 -25 129 1 29 216 191 87 123 -89 -161 -250 -151 -204 -99 63 167
220 375 315 376 400 355 327 291 317 276 259 373 408 285 323 292 300 271 242 310 354 322 262 256 248 359 472 421 447 456 262 577 404 400 302 320 277 218 145 98 68 87 162 123 123 76 68 40 41 2 -10 -17 -21 -26 -35 -43 -50 -58 -62 -40 -42 -55 -62 -68 -69 -58 -67 -73 -76 -78 -64 -55 -53 -48 -51 -55 -62 -74 -72 -57 -56 -50 -44 -32 -22 -21 -16 -2 -10 -13 -15 -12 -8 -23 -34 -39 -43 -46 -54 -56 -61 -83 -121 -241 -303 -463 -463 -476 -492 -502 -494 -485 -483 -474 -458 -429 -348 -289 -263 -241 -166 -155 -143 -150 -177 -196 -209 -175 -197 -218 -226 -234 -199 -233 -232 -225 -260 -272 -130 -45 -151 -147 -156 -141 -232 -200 -204 -183 -203 -238 -260 -312 -252 -77 -17 4 -65 -111 45 19 -113 106 49 1 -323 -258 -50 120 146 147 125 137
356 212 363 336 321 344 327 351 229 295 200 215 259 322 257 228 295 231 348 311 337 270 257 338 312 347 340 358 379 495 254 271 401 413 196 291 293 248 140 80 87 143 158 124 81 56 66 37 14 -3 -14 -18 -25 -31 -37 -41 -53 -55 -42 -35 -41 -52 -63 -64 -64 -57 -67 -70 -73 -64 -65 -62 -56 -52 -48 -51 -64 -108 -73 -63 -49 -47 -34 -24 -18 53 -2 -11 -15 -20 -17 -27 -30 -34 -40 -44 -51 -56 -64 -58 -62 -70 -77 -79 -91 -252 -390 -422 -445 -486 -484 -481 -474 -474 -463 -443 -434 -414 -387 -369 -352 -292 -220 -160 -152 -166 -163 -166 -181 -197 -209 -207 -207 -205 -211 -212 -223 -229 -220 -191 -176 -156 -107 -175 -68 -135 -86 -167 -245 -270 -335 -363 -372 -231 -202 -145 -145 -208 -159 -166 -47 -64 -243 -220 -82 111 214 245 201 92 55 87
442 452 318 392 320 312 249 259 318 306 155 214 187 236 171 307 330 343 314 291 250 284 241 298 376 442 580 541 480 558 443 381 536 453 410 353 267 200 115 88 125 159 122 105 81 47 31 41 5 -8 -17 -21 -24 -32 -37 -42 -46 -50 -41 -38 -38 -50 -53 -62 -65 -68 -65 -65 -69 -62 -63 -66 -63 -61 -55 -55 -64 -70 -62 -57 -49 -35 -26 -18 -12 -5 -11 -11 -22 -15 -30 -33 -34 -42 -47 -49 -56 -65 -73 -63 -57 -67 -70 -81 -178 -245 -291 -381 -435 -460 -458 -462 -461 -466 -458 -454 -452 -436 -426 -421 -396 -394 -376 -328 -245 -202 -184 -168 -196 -210 -214 -214 -224 -226 -212 -202 -171 -142 -149 -177 -181 -207 -230 -204 -229 -263 -281 -353 -409 -440 -384 -259 -197 -150 -110 -101 -46 -15 -35 -188 -248 -193 -213 -162 -31 142 168 164 87 -26 -95 -145
181 395 370 156 194 192 239 282 238 211 243 276 162 172 283 265 289 281 280 332 276 304 173 282 317 508 435 545 654 594 555 446 471 445 327 302 231 167 59 113 145 127 90 53 75 32 44 -2 -6 -16 -19 -23 -24 -29 -36 -42 -43 -42 -42 -33 -26 -31 -48 -61 -62 -67 -55 -55 -62 -61 -67 -70 -65 -60 -61 -56 -64 -57 -58 -58 -47 -40 -19 -28 70 6 -2 -9 -19 -24 -30 -36 -37 -42 -50 -56 -59 -65 -67 -68 -91 -130 -149 -173 -192 -208 -192 -161 -394 -429 -447 -459 -458 -465 -463 -453 -448 -439 -437 -430 -421 -416 -404 -404 -367 -310 -300 -266 -243 -226 -230 -228 -219 -192 -167 -144 -154 -108 -143 -172 -194 -212 -263 -291 -307 -326 -317 -337 -326 -289 -217 -165 -133 -71 -127 -74 -145 -140 -218 -184 -246 -197 -103 -3 26 26 23 63 -31 -11 -16 -25
366 272 365 312 307 217 272 204 192 308 215 225 261 137 227 220 244 236 243 276 324 175 335 469 288 416 417 623 471 431 505 560 411 423 367 277 170 116 43 112 117 112 92 61 49 7 -5 -4 -5 -15 -16 -20 -21 -26 -31 -39 -39 -38 -33 -29 -20 -22 -46 -56 -58 -54 -56 -55 -56 -60 -60 -64 -62 -58 -63 -65 -67 -66 -61 -54 -54 -36 -37 -29 -28 -31 -32 -27 -23 -28 -26 -36 -42 -47 -55 -67 -88 -101 -111 -151 -179 -168 -163 -170 -171 -177 -212 -254 -347 -391 -426 -436 -445 -459 -461 -448 -449 -445 -437 -428 -431 -419 -419 -433 -432 -432 -418 -394 -291 -234 -217 -190 -144 -95 -64 -74 -104 -147 -158 -215 -269 -296 -318 -329 -336 -324 -264 -279 -234 -177 -146 -95 -25 -94 -99 -308 -232 -287 -241 -81 -44 -23 -2 65 59 9 77 -6 -67 -146 -56 -46
310 400 430 366 405 236 226 190 175 207 190 235 273 217 209 176 232 199 232 298 188 298 369 491 396 415 505 416 406 358 504 386 415 303 257 191 140 71 26 120 86 92 87 11 4 12 -4 3 -2 14 -2 -12 -18 -23 -28 -36 -38 -36 -31 -19 -4 -21 -37 -43 -44 -44 -46 -48 -55 -56 -56 -51 -52 -53 -56 -57 -56 -62 -62 -56 -53 -48 -44 -40 -44 -33 -35 -24 -24 -33 -30 -40 -44 -48 -56 -69 -93 -105 -126 -146 -176 -76 -109 -134 -152 -165 -203 -237 -279 -357 -393 -428 -440 -445 -452 -444 -441 -449 -444 -432 -432 -437 -425 -433 -435 -451 -464 -446 -430 -378 -288 -131 -79 -70 -77 -102 -153 -165 -240 -277 -316 -325 -327 -315 -300 -271 -194 -189 -150 -111 -35 -14 27 -8 -46 -194 -190 -76 22 91 73 80 127 151 213 147 85 -81 -94 -102 -152 -111
406 423 421 264 292 249 399 200 222 219 201 216 192 238 237 206 160 231 451 326 144 161 253 392 485 483 459 484 430 380 310 385 347 269 285 190 158 95 12 75 55 1 52 32 28 27 21 22 16 15 4 -9 -18 -24 -29 -37 -31 -29 -18 17 3 -23 -36 -41 -43 -48 -49 -50 -54 -58 -59 -59 -58 -59 -66 -64 -61 -63 -63 -63 -60 -55 -54 -52 -49 -45 -43 -40 -40 -41 -42 -45 -50 -52 -61 -66 -101 -108 -130 -136 131 364 142 -40 -58 -80 -88 -135 -182 -283 -347 -396 -411 -428 -448 -434 -431 -447 -439 -435 -438 -436 -429 -426 -393 -450 -452 -457 -455 -448 -420 -342 -119 -72 -118 -155 -209 -275 -286 -320 -308 -297 -286 -256 -216 -163 -141 -119 -106 -53 -27 -21 -2 -12 -93 -141 -49 141 167 69 105 115 70 124 111 95 -90 -113 -81 -124 -171 -249
338 402 353 273 241 264 228 255 244 210 212 199 152 181 209 180 250 268 166 146 153 179 255 454 465 468 524 413 427 398 399 355 235 228 112 153 34 87 92 67 43 32 32 31 44 55 29 37 25 -2 -9 -14 -19 -25 -31 -29 -22 -12 36 31 17 -18 -32 -35 -42 -44 -51 -48 -54 -55 -57 -59 -62 -61 -60 -53 -60 -61 -66 -59 -58 -63 -56 -57 -52 -56 -57 -55 -51 -55 -55 -59 -66 -60 -59 -80 -106 -119 -103 -38 231 331 15 -20 -61 -84 -131 -169 -164 -186 -251 -327 -381 -404 -432 -420 -433 -449 -443 -451 -438 -432 -421 -423 -418 -421 -422 -449 -445 -465 -453 -430 -382 -241 -173 -216 -266 -303 -308 -322 -294 -257 -225 -166 -134 -105 -97 -89 -87 -60 -40 -26 4 -18 -107 -64 -33 11 45 24 86 -19 1 30 -38 -81 -80 -139 -143 -209 -236 -234
371 501 367 230 308 219 193 209 243 271 172 185 157 156 207 177 260 183 187 123 183 236 427 445 481 361 415 451 380 404 312 313 277 227 122 115 71 23 47 54 53 57 45 55 73 74 54 28 9 2 -12 -18 -19 -22 -26 -20 -13 20 44 11 -12 -20 -28 -36 -38 -39 -43 -43 -45 -51 -53 -55 -57 -54 -55 -55 -57 -59 -59 -55 -55 -65 -72 -77 -73 -81 -69 -68 -64 -60 -65 -64 -64 -67 -71 -97 -126 -67 158 94 429 286 423 278 39 -92 -148 -144 -139 -126 -134 -237 -319 -370 -422 -414 -436 -446 -441 -450 -434 -431 -429 -431 -414 -408 -417 -459 -476 -474 -455 -433 -443 -395 -328 -265 -293 -330 -321 -269 -207 -174 -137 -108 -92 -115 -75 -102 -102 -86 -60 -21 151 -56 35 -86 -102 -77 -37 -55 -77 -78 -79 -86 -91 -93 -111 -150 -189 -227 -236 -230
501 436 345 273 297 217 258 205 231 155 167 206 201 208 188 245 236 260 321 351 374 373 397 446 407 346 353 462 287 275 267 274 183 119 125 74 98 83 38 77 68 61 79 84 90 58 45 48 10 1 -2 -12 -15 -18 -21 -8 52 29 28 5 4 -14 -24 -28 -31 -35 -37 -41 -46 -44 -44 -52 -52 -53 -53 -54 -54 -57 -55 -58 -62 -61 -63 -86 -75 -78 -72 -72 -72 -64 -70 -68 -67 -71 -105 -84 -51 282 425 439 466 485 396 210 -18 -135 -138 -130 -122 -99 -75 -116 -160 -309 -384 -379 -380 -421 -420 -430 -421 -418 -415 -414 -414 -421 -413 -470 -457 -455 -453 -449 -438 -439 -392 -321 -291 -306 -275 -202 -140 -99 -57 -57 -71 -82 -80 -78 -98 -111 -113 -79 -56 -59 -69 -121 -130 -138 -125 -60 -63 -102 -114 -111 -103 -114 -122 -153 -203 -235 -225 -221
344 367 289 316 352 232 216 172 269 203 173 144 192 189 214 200 218 447 365 434 434 360 274 416 354 387 355 442 390 322 243 210 165 132 100 77 104 81 33 56 72 85 97 90 80 52 54 40 29 15 11 6 -11 -12 -25 -4 12 17 21 2 22 6 -6 -12 -23 -28 -29 -34 -38 -40 -42 -44 -45 -48 -52 -49 -48 -54 -53 -56 -55 -53 -54 -53 -56 -57 -57 -60 -65 -64 -65 -65 -64 -85 -75 -51 18 359 345 457 484 468 376 74 -47 -109 -124 -119 -109 -63 -66 -69 -82 -152 -280 -326 -352 -389 -401 -399 -409 -412 -420 -413 -403 -415 -409 -451 -458 -457 -455 -455 -443 -448 -432 -381 -335 -288 -243 -175 -77 -49 -46 -45 -49 -44 -46 -43 -72 -99 -88 -88 -98 -65 -84 -103 -141 -154 -135 -111 -111 -122 -138 -116 -129 -136 -147 -159 -196 -241 -222 -204
380 330 473 323 245 227 234 208 188 202 227 166 229 168 211 161 122 139 350 426 359 270 254 345 419 323 214 424 310 189 230 169 163 92 108 104 117 89 73 64 65 113 102 100 75 45 29 24 8 2 19 10 -10 -11 -19 -25 -12 -10 -6 -2 41 19 -2 -6 9 -11 -20 -24 -28 -34 -37 -43 -42 -46 -50 -47 -40 -45 -47 -49 -46 -45 -44 -43 -47 -49 -53 -56 -60 -59 -61 -63 -92 -67 -56 -31 306 440 370 487 458 388 364 53 -111 -108 -107 -108 -75 -59 -53 -62 -72 -91 -143 -248 -287 -324 -359 -380 -387 -406 -402 -408 -405 -409 -425 -448 -446 -449 -452 -455 -449 -448 -449 -433 -394 -329 -242 -137 -55 -49 -46 -41 -41 -40 -45 -55 -57 -50 -82 -96 -124 -112 -111 -103 -124 -151 -143 -121 -127 -135 -137 -132 -95 -152 -157 -168 -218 -240 -213 -176
368 329 262 328 260 232 202 208 184 184 250 221 276 166 136 210 169 62 212 224 385 410 324 351 293 302 300 237 248 211 163 97 151 144 130 98 107 89 67 92 104 106 103 88 57 54 49 39 50 40 48 25 -2 -5 -8 -10 -20 -14 -9 12 32 10 10 -2 20 7 3 30 39 -15 -20 -23 -24 -25 -25 -24 -18 -7 -2 -6 -2 3 9 -5 -12 -27 -33 -44 -56 -58 -61 -65 -63 -55 -37 22 378 201 422 461 451 362 275 -32 -69 -87 -82 -95 -64 -55 -53 -63 -75 -72 -215 -138 -150 -253 -304 -345 -364 -376 -394 -400 -407 -416 -431 -441 -446 -451 -448 -451 -454 -464 -460 -455 -429 -372 -286 -177 -54 -40 -38 -41 -42 -46 -54 -62 -54 -61 -55 -82 -95 -126 -141 -151 -157 -152 -140 -131 -142 -148 -140 -146 -137 -152 -150 -159 -191 -225 -219 -161
301 402 335 206 251 303 239 227 252 245 283 350 224 166 148 138 121 124 201 213 334 407 281 338 314 289 291 249 228 205 176 143 142 128 123 121 133 106 102 99 68 66 54 40 64 78 76 62 78 46 40 37 36 -7 -6 -14 -20 -10 -12 -2 13 -2 9 5 13 45 32 41 53 19 11 19 -4 21 27 34 12 42 38 30 43 67 54 3 -17 -11 -36 -39 -49 -57 -66 -60 -46 -38 16 3 314 220 470 405 383 347 18 -26 -38 -47 -58 -45 -44 -44 -49 -65 -82 -108 -108 -119 -133 -150 -187 -276 -318 -348 -359 -373 -391 -406 -422 -428 -432 -443 -450 -450 -462 -462 -463 -460 -456 -426 -359 -280 -142 -44 -36 -39 -40 -40 -46 -46 -60 -58 -71 -81 -90 -118 -127 -145 -165 -148 -143 -140 -144 -141 -148 -154 -154 -160 -131 -168 -181 -214 -209 -191
273 240 265 250 223 248 287 266 295 258 257 306 200 142 142 128 126 115 98 165 172 289 287 329 194 272 137 225 187 121 165 182 168 166 169 145 128 100 72 60 27 34 62 88 86 105 91 77 83 67 62 30 5 35 -6 -10 -12 -14 -14 -17 -12 -12 -11 15 30 45 116 81 91 21 45 33 5 54 19 45 31 36 31 13 -11 -29 -36 -37 -40 -42 -47 -51 -57 -66 -58 -51 -43 3 95 58 43 400 372 379 96 304 29 -5 21 -12 -25 -33 -40 -49 -58 -68 -81 -93 -91 -112 -123 -139 -129 -164 -234 -287 -310 -350 -367 -378 -405 -418 -431 -440 -440 -448 -453 -461 -468 -468 -461 -427 -384 -342 -256 -86 -44 -46 -36 -36 -46 -50 -52 -54 -56 -68 -70 -76 -91 -117 -126 -113 -106 -138 -150 -151 -161 -157 -164 -164 -163 -169 -171 -183 -167 -146
230 256 256 240 264 241 276 325 283 285 239 284 203 167 126 86 158 112 143 223 245 183 299 204 308 274 207 118 184 156 165 143 139 164 159 158 134 47 60 96 62 106 110 107 96 93 60 79 86 83 112 41 17 20 5 7 -2 6 -10 -12 -15 -18 -16 -18 -5 12 13 83 68 10 5 31 45 47 41 53 56 12 22 1 -22 -30 -37 -33 -42 -46 -48 -55 -56 -54 -47 -40 4 238 172 291 375 151 377 348 241 30 -14 48 -3 28 48 39 -9 -23 -32 -49 -62 -65 -63 -68 -79 -81 -99 -130 -142 -199 -280 -321 -330 -360 -382 -397 -412 -426 -428 -451 -460 -462 -462 -458 -447 -440 -409 -355 -287 -231 -185 -57 -56 -52 -59 -57 -55 -57 -63 -62 -61 -61 -68 -92 -99 -85 -74 -103 -112 -112 -127 -120 -134 -146 -147 -176 -176 -167 -161 -117
307 238 326 307 245 284 275 328 212 257 220 226 154 148 113 206 165 47 158 204 169 197 188 148 219 217 285 219 102 131 195 157 120 130 133 85 50 15 46 69 61 80 112 53 71 65 110 114 99 152 59 54 57 35 27 11 21 30 11 5 22 13 1 -11 -18 -15 -9 -11 -3 56 -3 -6 -6 10 40 61 24 22 2 -20 -22 -23 -38 -38 -41 -42 -47 -51 -53 -48 -39 216 167 143 57 283 225 26 295 68 44 22 -218 145 11 20 34 54 42 31 -15 -36 -37 -29 -54 -62 -59 -77 -88 -103 -112 -129 -163 -234 -299 -323 -348 -375 -391 -410 -435 -447 -471 -476 -472 -471 -466 -439 -435 -423 -340 -281 -236 -129 -67 -78 -45 -58 -50 -51 -60 -63 -55 -67 -66 -66 -69 -68 -54 -60 -66 -71 -77 -98 -99 -116 -121 -181 -170 -148 -121 -89
410 520 767 168 245 268 275 211 178 177 167 298 214 181 161 177 154 152 158 191 169 74 207 185 189 72 158 175 118 98 64 120 127 59 54 56 2 13 53 55 49 27 17 47 51 81 138 61 55 28 6 22 77 46 57 54 20 46 31 10 17 5 -5 -8 -9 -14 -17 -19 -18 -14 -13 -14 21 4 64 76 72 56 12 -24 -28 -34 -33 -31 -40 -45 -50 -51 -47 -36 51 7 94 91 162 294 207 27 -12 80 -38 5 178 131 18 30 63 50 24 29 -25 -26 -41 -51 -62 -64 -65 -81 -72 -82 -103 -129 -153 -170 -198 -260 -306 -367 -374 -389 -425 -447 -467 -488 -490 -486 -477 -472 -452 -442 -412 -344 -300 -261 -112 -50 -50 -42 -42 -41 -51 -52 -51 -50 -62 -66 -71 -75 -72 -64 -70 -65 -70 -86 -126 -140 -157 -172 -145 -122 -95 -88
668 574 648 256 138 185 200 155 147 141 135 153 174 166 140 151 127 142 216 45 96 86 73 147 124 76 5 18 9 32 105 49 43 18 42 24 13 50 58 54 14 77 104 134 83 86 66 30 68 97 96 84 39 38 53 103 10 10 20 35 18 18 -12 -11 -12 -14 -18 -20 -20 -19 -20 -19 -19 -11 8 33 27 37 1 -32 -30 -38 -41 -41 -44 -48 -45 -41 -40 -11 24 66 118 162 98 185 -3 77 45 -2 200 123 93 127 124 44 19 64 36 52 28 -36 -63 -55 -64 -68 -98 -44 -56 -103 -136 -124 -122 -152 -136 -166 -206 -266 -320 -353 -363 -401 -437 -484 -498 -484 -484 -467 -454 -439 -434 -414 -359 -319 -267 -121 -52 -47 -39 -49 -56 -66 -55 -46 -49 -62 -56 -68 -86 -72 -86 -70 -75 -95 -141 -146 -156 -159 -128 -104 -59 -34
392 1135 357 404 194 203 181 147 218 208 183 129 161 170 165 166 138 158 185 225 132 129 161 204 43 38 155 108 87 11 6 3 2 1 27 -53 41 27 28 69 100 131 129 154 111 57 102 94 179 186 257 142 90 76 67 28 4 21 10 28 49 22 20 -6 -6 -9 -10 -15 -17 -20 -21 -28 -31 -22 -23 -36 -29 -33 -29 -29 -28 -31 -36 -37 -40 -33 -37 -37 -30 -22 -2 179 177 55 47 15 2 -14 -8 -28 -25 -5 170 78 17 86 76 78 6 -58 -67 -58 -54 -56 -41 -57 -94 -83 -93 -124 -141 -158 -163 -208 -243 -4 -165 -61 -154 -253 -348 -364 -433 -469 -481 -473 -471 -471 -464 -453 -445 -437 -416 -373 -331 -269 -83 -59 -58 -50 -56 -57 -54 -58 -57 -56 -38 -40 -74 -72 -75 -67 -78 -108 -150 -154 -165 -146 -115 -69 -69 -81
209 196 186 160 178 142 155 190 207 170 161 164 133 133 161 165 160 335 222 233 188 194 135 138 140 124 143 79 53 14 5 37 53 52 13 31 59 96 140 180 178 47 77 168 141 237 162 148 131 370 327 359 154 2 4 14 4 26 26 57 70 68 92 24 3 28 4 8 -10 -3 -10 -8 -17 -21 -21 -22 -19 21 -11 -20 -28 -31 -31 -23 134 -2 -25 -33 -33 -20 1 234 45 108 127 199 -15 -24 -46 -41 93 91 99 98 62 28 13 1 -68 -40 -82 -79 -96 -107 -107 -116 -127 -135 -161 -181 -208 -228 -256 -262 -269 -277 -311 -140 -155 -164 -211 -321 -391 -433 -451 -469 -432 -467 -459 -448 -430 -425 -425 -396 -367 -296 -223 -77 -44 -46 -51 -42 -48 -44 -57 -44 -43 -49 -56 -73 -56 -58 -72 -101 -154 -168 -156 -148 -80 -72 -75 -61
152 202 153 162 152 109 126 185 139 169 145 142 109 169 148 132 200 188 156 187 216 160 142 146 160 147 114 81 49 6 56 102 122 137 103 9 64 129 207 86 42 42 23 147 247 262 331 321 320 326 327 4 3 -14 16 39 60 22 118 92 103 26 67 35 82 62 56 50 11 20 23 25 42 41 18 10 3 -11 -19 -21 -23 -7 208 221 119 46 -14 -19 -27 -24 -18 208 42 98 45 -50 186 89 17 7 78 88 82 33 18 6 -24 -52 -99 -114 -109 -138 -144 -119 -137 -156 -165 -169 -154 -168 -223 -236 -186 -229 -177 -349 -111 -183 -205 -214 -122 -245 -341 -416 -431 -451 -453 -442 -449 -440 -441 -432 -426 -402 -398 -376 -324 -293 -122 -46 -44 -42 -34 -39 -38 -50 -49 -51 -55 -54 -57 -64 -67 -82 -145 -149 -151 -134 -75 -65 -56 -79
177 192 148 146 112 125 122 133 160 121 126 109 136 194 155 145 124 151 118 126 138 132 125 142 121 146 85 95 78 5 104 155 137 143 135 -2 99 122 114 126 82 141 105 179 235 370 327 303 248 257 29 66 -18 -15 84 70 62 21 61 129 168 35 82 86 75 91 112 91 67 51 132 67 86 162 68 9 26 22 24 -2 48 201 236 250 87 -2 5 -8 3 11 78 4 84 33 63 90 14 25 41 44 6 28 2 -11 -28 -40 -72 -112 -149 -155 -143 -121 -142 -149 -155 -144 -139 -144 -162 -176 -193 -191 -216 -149 -92 -101 -220 -119 -127 -210 -135 -138 -238 -358 -414 -441 -453 -456 -445 -443 -439 -423 -424 -407 -394 -394 -366 -286 -264 -104 -44 -53 -51 -45 -44 -36 -47 -37 -42 -46 -38 -56 -61 -78 -149 -148 -149 -140 -78 -59 -68 -57
281 217 182 169 133 154 102 101 138 117 100 139 200 200 131 149 135 133 120 125 139 159 124 132 116 145 136 129 80 60 97 182 61 115 114 153 57 120 182 40 268 160 250 350 223 252 231 278 104 -20 -35 -38 1 94 100 112 98 75 149 236 284 265 203 307 272 327 306 307 319 318 257 259 279 119 57 30 29 58 82 117 228 181 213 36 70 50 52 144 179 85 175 144 4 -17 -3 25 25 4 -36 -15 -26 -59 -148 -164 -175 -158 -186 -162 -183 -147 -133 -135 -143 -162 -173 -137 -129 -145 -165 -151 -153 -133 -117 -166 -127 -246 -118 -111 -121 -161 -91 -75 -144 -277 -380 -422 -439 -435 -445 -442 -441 -463 -443 -435 -423 -444 -399 -405 -337 -248 -79 -61 -57 -50 -45 -52 -50 -46 -33 -45 -46 -53 -72 -85 -135 -133 -144 -114 -91 -76 -79 -78
180 137 139 116 153 88 129 99 97 133 117 154 222 145 137 155 107 108 96 123 113 131 147 168 124 108 200 255 131 84 170 101 25 295 101 24 93 30 94 63 201 205 324 289 233 46 -28 -39 -36 -30 14 42 115 136 141 173 136 208 217 214 229 220 283 231 215 136 145 141 143 137 187 125 226 154 151 146 62 214 142 192 200 254 211 147 96 142 186 142 134 121 130 85 67 20 -27 -22 -4 -14 -80 -136 -146 -165 -176 -171 -165 -150 -169 -166 -155 -161 -166 -139 -132 -142 -142 -140 -74 -74 -106 -127 -122 -101 -75 -85 -111 -92 -86 -159 -109 -129 -141 -99 -208 -132 -278 -390 -435 -467 -466 -460 -476 -487 -441 -418 -407 -398 -391 -377 -376 -312 -225 -63 -66 -51 -57 -31 -45 -56 -59 -54 -47 -51 -69 -128 -127 -123 -125 -112 -108 -77 -81 -56
142 129 176 92 105 74 53 100 125 98 121 202 253 175 153 120 92 101 101 96 106 99 81 119 271 69 158 169 144 274 218 213 186 60 61 54 15 75 94 194 217 219 99 -18 -34 -42 -43 -44 -32 95 116 194 72 -4 23 69 21 80 4 -22 29 104 51 1 8 15 24 8 40 47 66 174 224 231 172 164 171 175 134 127 133 133 109 140 124 154 145 132 104 157 -6 -26 -37 -43 -51 -81 -82 -79 -103 -128 -120 -80 -129 -124 -118 -131 -141 -164 -164 -155 -101 -137 -130 -107 -85 -103 -93 -88 -95 -102 -98 -110 -69 -99 -90 -120 -99 -73 -108 -86 -168 -142 -190 -146 -157 -293 -412 -450 -432 -446 -455 -441 -432 -434 -421 -412 -399 -387 -379 -356 -309 -172 -102 -69 -71 -60 -60 -57 -56 -41 -40 -67 -92 -139 -132 -147 -149 -114 -95 -54 -91 -80
223 150 120 118 90 58 128 84 92 96 133 142 93 144 133 104 84 71 73 87 106 127 115 67 97 54 55 92 194 145 137 101 96 84 -7 95 91 98 121 119 33 47 -37 -46 -51 -59 -46 -49 -45 -39 -25 88 -43 -59 -26 23 -48 -25 -17 -17 -13 -17 -4 -17 23 32 19 54 144 168 174 182 182 218 208 180 153 153 126 109 115 128 115 51 71 69 109 118 117 151 128 128 130 65 15 23 9 -15 -44 -43 -80 -94 -143 -124 -174 -159 -135 -149 -162 -148 -131 -126 -92 -79 -95 -102 -133 -97 -92 -88 -92 -110 -77 -84 -80 -76 -72 -98 -159 -115 -176 -183 -189 -90 -231 -154 -334 -422 -447 -453 -448 -449 -437 -431 -429 -422 -409 -394 -389 -373 -347 -294 -174 -67 -77 -69 -67 -56 -62 -69 -81 -52 -125 -166 -159 -155 -169 -129 -116 -96 -97 -84
87 90 91 99 61 50 173 187 137 86 151 116 152 142 90 139 78 65 66 73 99 90 36 101 138 62 42 126 199 84 136 126 37 68 48 -8 30 78 -4 -45 -52 -47 -55 -51 -32 -40 -61 -65 -39 -45 -43 -41 -37 -28 70 178 -9 -12 -5 -2 43 55 63 79 73 66 99 29 49 56 35 27 34 76 196 201 176 173 186 202 184 176 160 153 142 171 162 33 41 67 93 95 -7 -6 1 3 -30 -47 -79 -125 -123 -114 -140 -94 -89 -88 -100 -115 -143 -144 -83 -81 -84 -95 -96 -85 -94 -95 -109 -94 -81 -114 -97 -104 -90 -100 -108 -135 -133 -125 -86 -64 -65 -49 -105 -92 -257 -344 -414 -431 -441 -444 -438 -431 -426 -425 -411 -402 -390 -383 -369 -333 -248 -175 -95 -58 -89 -74 -73 -97 -69 -85 -131 -153 -159 -159 -172 -148 -134 -90 -98 -94
132 107 70 76 43 63 45 183 147 126 126 175 96 139 109 69 61 46 92 56 30 56 42 57 2 78 30 75 75 41 15 65 30 -8 -40 -48 -65 -50 -66 -68 -61 -67 -68 -66 -61 -54 -63 -62 -44 -31 37 139 192 89 26 16 -2 -10 57 51 51 49 50 52 54 123 110 26 23 66 77 135 161 112 175 178 163 139 139 146 118 110 97 100 22 34 58 52 -2 -8 -8 -23 -40 -62 -71 -68 -86 -91 -146 -144 -87 -77 -70 -64 -58 -75 -68 -85 -126 -126 -92 -117 -87 -87 -85 -95 -84 -98 -82 -101 -91 -90 -99 -90 -76 -99 -85 -141 -126 -164 -77 -64 -68 -47 -69 -140 -199 -269 -386 -434 -442 -442 -438 -432 -424 -427 -420 -425 -398 -384 -374 -343 -307 -242 -108 -89 -81 -77 -82 -86 -93 -95 -128 -140 -142 -157 -205 -153 -106 -133 -116 -117
76 76 48 47 37 47 48 124 123 112 108 155 136 101 119 91 100 39 83 56 84 61 84 -18 -19 7 -4 52 -37 -26 -32 -47 -54 -78 -79 -88 -85 -85 -82 -81 -80 -70 -69 -69 -71 -68 -45 -26 80 184 81 30 27 37 58 114 115 147 -13 23 19 24 131 190 91 42 61 30 35 132 82 48 137 172 145 151 139 129 97 97 80 108 83 58 37 3 -5 -2 -18 -36 -35 -45 -61 -107 -117 -140 -157 -189 -140 -109 -115 -81 -77 -65 -66 -103 -98 -91 -145 -132 -122 -116 -113 -85 -93 -114 -96 -82 -77 -76 -81 -97 -89 -91 -90 -76 -121 -112 -103 -111 -103 -164 -130 -133 -114 -102 -63 -134 -310 -409 -445 -425 -431 -435 -434 -418 -406 -405 -397 -394 -386 -371 -350 -284 -182 -97 -96 -85 -86 -81 -108 -84 -306 -164 -136 -277 -622 -696 -487 -198 -394 -261
65 82 39 43 34 34 70 99 111 151 166 141 131 92 141 93 117 43 91 76 68 39 46 20 24 -18 -35 -63 -60 -56 -68 -89 -98 -93 -99 -98 -95 -88 -80 -77 -79 -76 -71 -66 -64 -33 119 76 30 25 80 217 216 215 188 204 167 141 3 34 44 149 128 125 126 25 25 56 46 38 78 76 118 115 114 98 82 64 49 52 68 38 9 10 13 -6 -17 -43 -49 -60 -82 -97 -131 -157 -176 -173 -196 -187 -176 -198 -179 -103 -121 -73 -90 -180 -175 -101 -167 -156 -127 -152 -120 -91 -85 -125 -137 -86 -84 -128 -128 -106 -93 -128 -103 -149 -116 -109 -114 -90 -103 -101 -101 -68 -62 -49 -52 -57 -149 -331 -421 -439 -436 -438 -429 -418 -420 -401 -398 -398 -393 -378 -362 -306 -281 -218 -105 -108 -94 -103 -139 -212 -411 -242 -470 -444 -1138 -1054 -654 -569 -1069 -754
95 32 48 37 36 41 73 184 86 143 159 128 118 154 59 105 37 86 20 51 53 29 3 -11 16 43 -61 -107 -103 -93 -103 -121 -112 -114 -109 -106 -97 -84 -83 -84 -64 -74 -57 -29 132 82 27 89 119 186 188 240 210 207 211 199 172 222 193 108 167 133 170 157 93 45 125 136 77 71 80 104 17 101 65 79 79 47 22 1 1 -22 -9 -15 -39 -55 -59 -74 -88 -119 -125 -127 -147 -169 -179 -207 -206 -191 -202 -196 -171 -121 -96 -193 -155 -168 -122 -167 -186 -172 -178 -191 -203 -107 -159 -128 -81 -97 -130 -87 -129 -110 -100 -235 -122 -114 -101 -107 -177 -162 -73 -92 -61 -64 -62 -48 -36 -42 -43 -159 -391 -422 -421 -428 -421 -410 -412 -405 -407 -398 -400 -374 -375 -334 -297 -234 -287 -243 -283 -251 -300 -567 -823 -1164 -1327 -1290 -1710 -1646 -1033 -1755 -1616 -1645
57 69 54 16 63 52 86 145 83 119 107 106 137 94 91 67 30 69 12 38 58 44 15 24 18 -86 -99 -116 -107 -115 -138 -141 -130 -125 -112 -103 -101 -105 -89 -84 -65 -35 155 68 21 219 207 234 211 219 222 223 191 256 205 201 217 159 177 125 160 87 119 113 47 85 115 108 98 73 20 74 35 55 56 62 36 -6 -17 -11 -17 -51 -68 -67 -77 -81 -93 -103 -128 -106 -90 -94 -107 -118 -86 -79 -104 -225 -128 -223 -159 -141 -122 -131 -178 -202 -147 -165 -218 -240 -213 -178 -141 -131 -241 -186 -206 -116 -125 -204 -271 -54 -245 -139 -222 -121 -203 -128 -115 -81 -122 -69 -61 -55 -50 -40 -33 -32 -33 -44 -249 -407 -417 -423 -417 -421 -416 -413 -412 -392 -388 -382 -382 -367 -476 -699 -848 -946 -838 -718 -572 -645 -1422 -1816 -1700 -2007 -2186 -1876 -1976 -1994 -1937 -1767
114 54 18 33 126 149 113 58 134 86 162 58 64 80 52 69 45 53 85 56 44 49 42 -44 -81 -87 104 -2 -92 -144 -162 -89 -117 -129 -102 -93 -90 -71 -79 -39 130 10 21 135 169 228 256 206 192 206 194 186 168 162 163 216 199 181 172 119 53 71 111 104 19 65 51 65 38 2 8 31 34 5 15 -9 -28 -46 -45 -56 -83 -91 -99 -113 -113 -125 -115 -131 -140 -142 -129 -121 -105 -98 -90 -81 -157 -160 -107 -87 -89 -50 -55 -70 -119 -93 -173 -102 -178 -82 -95 -121 -76 -94 -93 -68 -108 -139 -71 -236 -110 -165 -153 -122 -105 -82 -87 -75 -69 -62 -74 -68 -61 -49 -42 -37 -32 -36 -53 -56 -123 -377 -401 -413 -403 -426 -407 -403 -396 -390 -388 -378 -400 -693 -1280 -1234 -1215 -1454 -1283 -1086 -1038 -1020 -1364 -1774 -2083 -2240 -2154 -2065 -2163 -2312 -2028 -1676
93 56 15 63 114 155 49 30 62 59 95 182 30 53 18 25 20 21 21 12 1 7 -83 -79 -85 -84 -6 -2 -32 -144 -200 -178 -125 -134 -106 -103 -74 -40 158 -3 -2 94 155 161 195 208 207 194 207 187 126 156 169 149 152 110 64 137 83 44 -7 24 59 99 129 48 31 -2 16 -13 -13 -17 -15 -15 -28 -38 -69 -83 -78 -83 -69 -132 -142 -137 -138 -142 -142 -149 -147 -146 -148 -132 -113 -99 -91 -90 -144 -69 -57 -48 -43 -35 -30 -48 -162 -166 -157 -125 -150 -85 -73 -149 -113 -96 -105 -79 -94 -111 -128 -105 -196 -68 -69 -90 -83 -68 -61 -62 -58 -66 -67 -58 -50 -38 -32 -33 -46 -59 -51 -50 -66 -259 -366 -413 -406 -411 -403 -388 -377 -367 -378 -410 -997 -1288 -1424 -1611 -1660 -1820 -1492 -1493 -1439 -1459 -1522 -1705 -2483 -2387 -2707 -2440 -2569 -2198 -1941 -1725
71 107 137 13 56 85 116 77 27 24 62 111 63 15 4 4 2 15 8 -24 -35 -99 -79 -82 -35 -16 -18 -14 -18 -114 -200 -201 -145 -131 -91 -82 83 -2 59 122 150 118 174 173 160 196 189 184 200 183 126 72 116 132 102 126 33 31 -13 47 -64 47 55 33 99 69 -18 -27 -36 -45 -50 -52 -58 -57 -81 -88 -90 -131 -125 -123 -148 -148 -148 -153 -165 -164 -151 -161 -161 -152 -153 -133 -109 -106 -109 -106 -94 -75 -71 -61 -48 -37 -31 -48 -68 -155 -124 -96 -86 -92 -75 -60 -49 -43 -48 -49 -59 -56 -58 -56 -56 -59 -64 -70 -87 -67 -67 -55 -61 -56 -58 -52 -47 -36 -34 -41 -58 -58 -52 -62 -66 -72 -283 -373 -386 -610 -684 -523 -503 -785 -1036 -1086 -1162 -1202 -1845 -1865 -1833 -2006 -1970 -1875 -1784 -1868 -1907 -1970 -2358 -2650 -2888 -2883 -2394 -1827 -1747 -1727
63 54 -2 60 60 61 75 32 45 23 6 57 31 4 4 -15 -12 17 -78 -52 -56 -71 -90 -53 -44 -43 -23 -88 -86 -201 -187 -180 -156 -116 -74 2 -9 79 103 133 162 166 161 152 151 139 132 132 157 130 111 102 115 105 92 51 15 -28 -14 21 -29 -36 -26 10 29 5 -65 -58 -69 -76 -83 -102 -80 -121 -125 -123 -136 -151 -148 -157 -151 -145 -180 -207 -174 -168 -156 -159 -156 -155 -132 -150 -146 -135 -129 -107 -107 -98 -81 -76 -74 -57 -32 -43 -49 -58 -65 -97 -71 -106 -79 -134 -46 -54 -61 -53 -64 -53 -65 -66 -58 -55 -64 -62 -69 -63 -64 -19 -71 -60 -61 -48 -46 -32 -59 -69 -61 -68 -64 -60 -2 -105 -367 -769 -747 -886 -1204 -890 -1333 -1497 -1431 -1780 -1582 -1733 -1996 -2203 -2253 -2368 -2363 -2467 -2191 -2256 -2233 -2442 -2454 -2601 -3007 -2782 -2289 -2125 -2036 -1986
18 -21 -18 20 31 41 -20 -13 43 69 -45 11 2 -24 -22 -47 -50 -57 -81 -87 -131 -92 -106 -115 -114 -114 -108 -102 -157 -200 -197 -190 -125 -36 -24 -6 54 74 110 120 143 156 177 135 101 92 108 114 95 93 117 124 125 88 75 77 10 3 -16 -28 -44 -57 -75 -86 -54 -47 -97 -105 -92 -98 -109 -155 -142 -135 -155 -159 -154 -172 -179 -187 -209 -224 -143 -201 -183 -165 -160 -130 -160 -169 -170 -154 -154 -110 -111 -97 -105 -102 -83 -67 -59 -50 -30 -48 -53 -83 -134 -128 -119 -156 -167 -152 -167 -141 -78 -123 -153 -145 -151 -122 -88 -86 -64 -66 -59 -65 -71 -38 -61 -56 -53 -46 -39 -31 -91 -83 -103 -91 -102 -164 -481 -601 -1148 -1373 -1614 -1576 -1515 -1440 -1815 -1931 -1827 -2072 -1666 -1794 -1901 -2461 -2489 -2598 -2634 -2606 -2546 -2638 -2676 -2677 -2714 -2728 -2903 -2942 -2605 -2360 -2275 -2273
88 7 3 -16 65 66 -17 38 127 78 -48 -56 -48 -46 -46 -78 -94 -83 -104 -143 -160 -173 -151 -115 -122 -137 -186 -181 -187 -198 -200 -20 -72 -35 -14 56 70 82 122 149 164 169 163 154 108 112 96 113 79 74 81 95 95 76 75 9 56 -13 -12 -67 -71 -71 -82 -103 -109 -68 -60 -113 -125 -144 -139 -147 -165 -172 -181 -178 -178 -200 -221 -214 -79 -95 -184 -167 -171 -164 -158 -149 -154 -171 -138 -157 -140 -91 -80 -84 -75 -88 -98 -124 -148 -143 -124 -102 -98 -97 -113 -130 -157 -149 -157 -145 -145 -138 -144 -211 -223 -110 -150 -164 -122 -76 -61 -63 -63 -65 -58 -62 -65 -84 -58 -90 -292 -327 -180 -411 -648 -409 -618 -878 -924 -781 -1470 -1683 -2095 -2089 -1807 -1561 -1945 -2176 -2034 -2399 -2219 -2400 -2498 -2603 -2729 -2743 -2815 -2773 -2746 -2900 -2833 -2897 -2875 -2890 -3103 -3026 -2797 -2724 -2510 -2436
-45 -43 4 -20 36 5 -14 -38 18 -18 -46 -68 -68 -68 -87 -112 -104 -152 -180 -242 -207 -181 -138 -103 -154 -175 -185 -182 -185 -57 -72 -46 -67 -28 -4 54 65 83 84 136 145 186 170 155 133 101 81 86 84 112 81 54 70 72 31 -5 3 -41 -56 -66 -62 -100 -115 -97 -115 -113 -68 -82 -149 -166 -171 -165 -188 -162 -200 -240 -197 -161 -146 -90 -133 -156 -173 -150 -158 -117 -134 -118 -104 -122 -111 -143 -101 -86 -74 -65 -60 -46 -23 -70 -116 -93 -101 -102 -93 -113 -114 -95 -131 -126 -112 -162 -181 -202 -226 -154 -248 -187 -189 -205 -72 -96 -64 -64 -62 -61 -166 -228 -77 -105 -255 -158 -690 -725 -452 -860 -1400 -1208 -1498 -1473 -1750 -1737 -1906 -1655 -2154 -2225 -2044 -2193 -2156 -2462 -2444 -2468 -2470 -2269 -2762 -2861 -2860 -2921 -2971 -2960 -2927 -3064 -3056 -2910 -3064 -2989 -3093 -3260 -3015 -2821 -2734 -2683
-52 18 1 -53 -5 2 4 51 -37 6 -50 -78 -80 -95 -109 -127 -129 -219 -201 -217 -169 -132 -159 -90 -152 -169 -150 -122 -82 -97 -85 -68 -58 -24 60 50 62 73 67 72 103 153 129 113 142 100 84 94 89 64 85 88 26 -2 4 -24 -47 -49 -91 -102 -85 -110 -95 -147 -139 -131 -145 -138 -157 -152 -162 -171 -186 -198 -234 -230 -183 -122 -151 -148 -149 -159 -153 -150 -90 -152 -124 -103 -140 -127 -111 -137 -110 -81 -72 -53 -56 -40 -26 -29 -59 -65 -59 -84 -122 -66 -95 -95 -113 -103 -135 -70 -75 -65 -104 -187 -223 -287 -278 -258 -188 -160 -87 -73 -78 -91 -156 -669 -277 -375 -558 -968 -1161 -1535 -1100 -1133 -1436 -1648 -1713 -2238 -1703 -2259 -2198 -1976 -2275 -2513 -2316 -2327 -2522 -2685 -2677 -2734 -2414 -2481 -2823 -2998 -2769 -3097 -3099 -3152 -3107 -3104 -3256 -3236 -3208 -3089 -3375 -3357 -3062 -2948 -2933 -3092
-97 -5 15 -35 -22 -17 -33 -54 -61 -77 -77 -101 -113 -87 -110 -142 -182 -214 -199 -156 -148 -207 -167 -111 -155 -168 -142 -111 -99 -108 -76 -66 -44 -27 17 35 48 51 53 89 121 142 97 104 102 91 97 104 93 85 103 19 33 2 -31 -52 -61 -76 -95 -82 -80 -130 -165 -170 -172 -161 -171 -178 -190 -155 -142 -198 -226 -232 -246 -230 -179 -134 -163 -131 -124 -130 -126 -103 -135 -125 -127 -156 -127 -125 -96 -131 -102 -70 -60 -56 -52 -42 -28 -19 -33 -32 -36 -36 -48 -46 -45 -45 -52 -45 -61 -59 -29 -16 -22 -12 -3 -40 -229 -505 -273 -141 -114 -106 -93 -121 -70 -336 -1344 -764 -1028 -1512 -1543 -1752 -1526 -1821 -2327 -1700 -2193 -2371 -2403 -2455 -2166 -2535 -2494 -2572 -2503 -2522 -2935 -2849 -2857 -2962 -2691 -2561 -2834 -3050 -2871 -3218 -3265 -3287 -3354 -3211 -3244 -3314 -3428 -3235 -3273 -3367 -3195 -3141 -3337 -3172
-35 -23 -35 -36 -68 -71 -70 -89 -93 -84 -86 -107 -156 -136 -163 -183 -212 -214 -204 -178 -193 -173 -170 -154 -162 -157 -115 -93 -113 -98 -93 -69 -29 -18 8 49 61 36 36 55 89 81 78 69 84 86 90 73 110 85 89 30 -31 -45 -72 -71 -82 -107 -122 -153 -162 -165 -185 -185 -178 -211 -207 -199 -170 -164 -176 -220 -222 -251 -243 -219 -194 -154 -100 -85 -95 -124 -126 -129 -133 -133 -92 -105 -80 -70 -69 -82 -80 -68 -60 -51 -51 -39 -33 -35 -28 -8 -75 -77 -53 -88 -89 -75 -16 -34 -25 -38 -34 -24 -26 -33 -44 -37 -40 -192 -696 -182 -132 -137 -165 -283 -393 -1135 -1613 -1930 -1605 -1784 -2410 -2488 -2322 -2061 -2633 -2387 -2393 -2666 -2959 -2737 -2383 -2471 -2729 -2867 -2437 -2685 -2717 -2945 -3016 -3128 -2663 -2801 -3269 -2849 -3001 -3211 -3321 -3407 -3410 -3461 -3201 -3231 -3410 -3555 -3583 -3429 -3379 -3489 -3264 -3095
-14 -39 -36 -62 -91 -87 -99 -108 -107 -140 -175 -172 -180 -181 -182 -220 -198 -215 -211 -219 -216 -176 -177 -158 -147 -143 -122 -112 -117 -84 -62 -62 -59 -33 13 35 16 13 24 42 77 78 51 58 74 47 78 55 42 64 19 -10 -30 -61 -68 -103 -93 -128 -151 -171 -164 -172 -185 -193 -228 -234 -222 -187 -125 -135 -114 -168 -253 -259 -246 -230 -183 -162 -144 -152 -139 -129 -114 -127 -125 -116 -130 -81 -60 -50 -48 -49 -50 -53 -46 -53 -54 -45 -31 -31 -24 -33 -18 -24 -42 -52 -69 -54 -27 -83 -19 -34 -35 -37 -45 -50 -57 -65 -75 -92 -827 -750 -298 -61 -788 -1435 -1299 -1354 -2190 -2299 -2436 -2071 -2317 -2675 -2458 -1941 -2340 -2721 -2633 -2983 -3136 -3139 -2853 -2866 -2902 -2818 -3137 -2961 -3062 -3179 -3195 -3074 -2811 -2838 -3397 -3145 -3046 -3203 -3299 -3514 -3525 -3590 -3407 -3359 -3308 -3448 -3670 -3631 -3524 -3428 -3306 -3236
-48 -28 -66 -89 -94 -127 -135 -136 -147 -170 -191 -176 -163 -165 -208 -223 -219 -225 -216 -213 -191 -175 -175 -172 -185 -134 -138 -94 -99 -102 -65 -58 -53 -38 8 9 1 3 21 53 70 57 35 39 34 21 61 40 24 39 -7 -41 -71 -70 -98 -121 -144 -130 -171 -188 -199 -202 -224 -241 -240 -240 -221 -149 -136 -108 -101 -181 -281 -259 -227 -200 -186 -152 -140 -137 -130 -139 -124 -121 -115 -110 -83 -68 -68 -54 -52 -38 -34 -39 -53 -49 -48 -41 -37 -36 -46 -54 -51 -47 -45 -50 -51 -55 -48 -49 -50 -49 -50 -57 -60 -66 -77 -89 -97 -176 -765 -1994 -1502 -1386 -1902 -2107 -2118 -1867 -1765 -2421 -2800 -2728 -2422 -3018 -2804 -2287 -2533 -3103 -2847 -3157 -3278 -3397 -3197 -3069 -2949 -3161 -3037 -3115 -3287 -3333 -3385 -3185 -3008 -2780 -3198 -3454 -3147 -3072 -3641 -3600 -3659 -3669 -3705 -3460 -3369 -3518 -3704 -3700 -3520 -3391 -3432 -3545
-60 -62 -98 -100 -114 -137 -129 -187 -190 -193 -175 -170 -162 -203 -209 -232 -234 -232 -224 -203 -191 -166 -177 -124 -151 -127 -115 -83 -93 -92 -91 -92 -54 -41 -16 1 1 4 28 49 46 47 65 87 -11 43 1 10 -10 -40 -57 -74 -94 -93 -130 -152 -172 -185 -192 -220 -229 -249 -237 -241 -232 -214 -160 -162 -88 -97 -195 -259 -260 -243 -217 -201 -156 -120 -114 -121 -122 -126 -105 -96 -101 -87 -80 -69 -60 -54 -46 -48 -46 -41 -46 -47 -47 -42 -41 -50 -51 -51 -53 -55 -54 -52 -52 -57 -45 -43 -59 -75 -76 -76 -102 -117 -121 -123 -158 -305 -717 -1623 -2166 -2538 -2212 -2297 -2703 -2405 -2174 -2379 -2750 -3100 -2809 -3118 -3140 -2671 -2633 -2966 -3307 -3158 -3449 -3484 -3360 -3270 -3203 -3357 -3242 -2977 -3050 -3397 -3478 -3174 -2916 -3209 -3200 -3464 -3265 -3226 -3317 -3721 -3753 -3777 -3749 -3613 -3501 -3627 -3796 -3826 -3539 -3521 -3638 -3629
-85 -113 -111 -121 -147 -149 -167 -174 -180 -184 -169 -182 -194 -229 -235 -227 -233 -231 -220 -214 -209 -173 -181 -152 -154 -152 -101 -109 -128 -106 -118 -89 -66 -47 -17 -13 -2 -12 -6 32 57 19 17 17 1 -19 -25 -16 -23 -48 -71 -102 -134 -153 -141 -146 -172 -182 -203 -211 -223 -224 -232 -233 -226 -214 -156 -120 -98 -209 -235 -254 -241 -229 -199 -151 -120 -87 -68 -72 -105 -94 -103 -87 -94 -87 -71 -70 -68 -56 -54 -43 -43 -43 -47 -47 -53 -58 -55 -58 -58 -62 -62 -60 -57 -61 -67 -77 -87 -92 -99 -119 -171 -232 -380 -324 -347 -550 -713 -1185 -1936 -1886 -2037 -2358 -3008 -2407 -2824 -2594 -2430 -2550 -2888 -3245 -3270 -3164 -3524 -3243 -3080 -2962 -3241 -3442 -3376 -3581 -3570 -3342 -3389 -3480 -3438 -3203 -3072 -3482 -3540 -3305 -3117 -3356 -3455 -3508 -3484 -3305 -3033 -3819 -3802 -3871 -3857 -3770 -3716 -3822 -3889 -3736 -3676 -3715 -3751 -3688
-123 -131 -143 -152 -146 -126 -167 -173 -185 -181 -180 -189 -207 -238 -241 -242 -236 -227 -220 -218 -221 -196 -208 -209 -189 -171 -150 -125 -102 -112 -113 -84 -65 -55 -29 -31 -10 -17 -12 -2 61 1 17 12 -13 -33 -57 -61 -61 -82 -95 -137 -138 -134 -151 -140 -184 -197 -194 -172 -145 -189 -231 -232 -218 -195 -166 -141 -205 -216 -224 -227 -154 -167 -114 -98 -96 -83 -78 -73 -99 -94 -100 -91 -87 -77 -72 -75 -74 -65 -54 -54 -65 -57 -60 -63 -69 -64 -67 -65 -66 -72 -67 -76 -82 -92 -97 -295 -219 -208 -295 -650 -990 -1191 -1186 -1325 -1180 -1385 -1475 -1522 -1977 -2019 -2367 -2737 -2876 -3025 -3166 -2805 -2837 -2803 -3079 -3235 -3560 -3306 -3518 -3631 -3423 -3314 -3365 -3354 -3484 -3555 -3695 -3591 -3489 -3502 -3460 -3344 -3139 -3273 -3633 -3378 -3189 -3665 -3653 -3425 -3228 -3080 -3137 -3901 -3862 -3964 -4029 -3894 -3816 -3968 -3949 -3751 -3892 -3799 -3866 -3831
-140 -110 -124 -132 -130 -149 -165 -172 -180 -163 -181 -196 -219 -257 -258 -236 -222 -220 -218 -216 -199 -208 -204 -214 -206 -194 -177 -163 -133 -97 -91 -75 -58 -64 -45 -26 -6 -18 -35 -5 -2 11 -4 2 -36 -66 -72 -92 -118 -128 -97 -70 -65 -82 -96 -142 -189 -197 -146 -124 -124 -141 -207 -215 -202 -179 -157 -182 -194 -209 -209 -143 -105 -110 -105 -98 -97 -87 -82 -79 -78 -114 -101 -100 -86 -82 -77 -77 -71 -65 -76 -72 -70 -66 -66 -69 -70 -66 -75 -81 -81 -87 -107 -116 -126 -138 -178 -265 -1066 -806 -1198 -1629 -1603 -1748 -1585 -1869 -1878 -1928 -1823 -2157 -1986 -2268 -2205 -2859 -3058 -3353 -3212 -3154 -3097 -3187 -3328 -3344 -3580 -3608 -3582 -3715 -3655 -3621 -3665 -3425 -3474 -3603 -3750 -3720 -3586 -3585 -3506 -3467 -3244 -3177 -3686 -3703 -3442 -3488 -3691 -3475 -3252 -3113 -3042 -3359 -3985 -3993 -4059 -3974 -4090 -4022 -3781 -3940 -3987 -3903 -3919 -3853
-147 -122 -102 -93 -140 -157 -178 -181 -169 -175 -190 -221 -240 -251 -244 -264 -234 -228 -192 -185 -201 -180 -212 -201 -177 -176 -159 -133 -106 -93 -74 -62 -62 -76 -47 -32 -7 -14 -36 -11 -6 -13 -29 -46 -65 -81 -139 -148 -165 -147 -86 -59 -63 -81 -125 -153 -190 -156 -101 -102 -107 -111 -156 -215 -202 -177 -165 -165 -195 -201 -159 -122 -102 -95 -102 -94 -90 -95 -88 -83 -88 -101 -102 -96 -89 -89 -83 -85 -71 -75 -82 -73 -73 -73 -77 -81 -98 -97 -97 -122 -145 -194 -247 -644 -694 -522 -734 -664 -1051 -1696 -1587 -1991 -2216 -2063 -1917 -2015 -2290 -2290 -2397 -2225 -2328 -2710 -2829 -2706 -3165 -3377 -3382 -3228 -3387 -3242 -3512 -3522 -3535 -3695 -3664 -3804 -3781 -3855 -3765 -3462 -3496 -3803 -3929 -3824 -3722 -3713 -3650 -3534 -3422 -3379 -3297 -3785 -3622 -3438 -3718 -3537 -3302 -3161 -3121 -3427 -3950 -4092 -4156 -4168 -4052 -3876 -3912 -4114 -3903 -4010 -4001 -3977
-147 -134 -117 -127 -157 -181 -176 -169 -170 -188 -201 -220 -228 -235 -223 -257 -240 -224 -175 -186 -187 -220 -229 -199 -195 -201 -171 -131 -97 -98 -58 -54 -62 -70 -45 -38 -22 -23 -30 -39 -41 -32 -53 -69 -93 -136 -156 -158 -164 -143 -88 -82 -84 -109 -157 -161 -163 -100 -90 -88 -90 -97 -124 -175 -190 -186 -166 -138 -157 -161 -141 -117 -106 -109 -98 -97 -87 -92 -93 -89 -89 -104 -99 -90 -91 -89 -82 -86 -86 -70 -76 -74 -79 -95 -193 -139 -135 -161 -261 -412 -513 -808 -1183 -1568 -1360 -1194 -1308 -1391 -1620 -1752 -2013 -2471 -2575 -2229 -2342 -2481 -2404 -2747 -2473 -2634 -2884 -2717 -2910 -3120 -3162 -3308 -3606 -3368 -3260 -3546 -3741 -3725 -3646 -3676 -3718 -3916 -3939 -3971 -3924 -3573 -3625 -3771 -3958 -3904 -3826 -3803 -3732 -3592 -3522 -3371 -3332 -3628 -3698 -3783 -3886 -3659 -3625 -3293 -3216 -3724 -4111 -4168 -4193 -4244 -3996 -3965 -4035 -4000 -4083 -4154 -4101 -4106
-159 -151 -171 -178 -176 -181 -196 -170 -190 -194 -204 -207 -210 -214 -227 -224 -214 -208 -191 -188 -196 -218 -209 -201 -181 -178 -152 -111 -129 -75 -80 -82 -55 -74 -74 -73 -60 -37 -51 -53 -52 -63 -64 -85 -114 -125 -153 -144 -141 -154 -106 -121 -122 -132 -145 -145 -104 -86 -85 -89 -83 -88 -107 -172 -181 -171 -158 -136 -136 -120 -129 -121 -116 -99 -96 -100 -91 -98 -92 -93 -91 -101 -98 -92 -93 -94 -92 -86 -81 -83 -80 -89 -177 -367 -482 -414 -337 -576 -903 -941 -1311 -1423 -1804 -1588 -2015 -1835 -1350 -1850 -1840 -1946 -1965 -2346 -2511 -2913 -2840 -2708 -2661 -3092 -2731 -3038 -3153 -3115 -3175 -3136 -3501 -3372 -3556 -3705 -3397 -3584 -3826 -3884 -3931 -3859 -3793 -3860 -3988 -4014 -3953 -3731 -3744 -3854 -4038 -3943 -3869 -3864 -3792 -3789 -3626 -3481 -3368 -3376 -3445 -3858 -3848 -3625 -3596 -3377 -3298 -3522 -4132 -4227 -4273 -4269 -3999 -4054 -4165 -4225 -4185 -4167 -4219 -4238
-170 -183 -172 -179 -165 -183 -199 -201 -202 -201 -177 -183 -186 -194 -197 -180 -189 -187 -185 -172 -174 -185 -180 -181 -171 -157 -154 -126 -115 -90 -83 -82 -78 -95 -84 -91 -80 -80 -79 -63 -76 -80 -102 -98 -98 -122 -130 -155 -127 -130 -161 -134 -129 -120 -134 -134 -104 -80 -81 -87 -90 -89 -99 -125 -142 -138 -146 -136 -150 -146 -141 -127 -124 -116 -110 -104 -97 -99 -102 -91 -100 -106 -99 -103 -100 -97 -93 -90 -93 -108 -115 -309 -681 -1076 -1430 -1454 -869 -1024 -1385 -1387 -1598 -1643 -1747 -2363 -2213 -1757 -1756 -1976 -2194 -2253 -2199 -2403 -2515 -2685 -3144 -3314 -2675 -3198 -3014 -3205 -3387 -3258 -3621 -3581 -3669 -3542 -3470 -3731 -3813 -3579 -3712 -3804 -3953 -4026 -3967 -3976 -4011 -4123 -4048 -3653 -3760 -3924 -4118 -4073 -3969 -3964 -3909 -3834 -3665 -3642 -3604 -3526 -3441 -3723 -3938 -3737 -3639 -3474 -3382 -3474 -3932 -4324 -4310 -4282 -4148 -4110 -4189 -4269 -4245 -4282 -4362 -4275
-98 -160 -189 -186 -194 -179 -196 -204 -185 -198 -202 -184 -188 -183 -196 -161 -165 -192 -207 -192 -197 -210 -205 -190 -159 -175 -150 -147 -123 -128 -114 -107 -99 -79 -108 -98 -89 -90 -92 -101 -87 -113 -120 -114 -124 -150 -163 -169 -155 -128 -98 -87 -89 -118 -121 -129 -108 -88 -87 -91 -92 -93 -109 -132 -138 -157 -158 -152 -157 -151 -146 -136 -125 -120 -98 -102 -109 -109 -109 -110 -103 -110 -108 -108 -107 -103 -108 -122 -157 -268 -599 -1035 -1295 -1259 -1670 -1865 -1284 -1737 -1684 -1717 -1699 -1948 -2297 -2388 -2521 -2231 -2166 -2246 -2387 -2392 -2494 -2594 -2735 -2952 -3109 -3478 -3043 -3179 -3626 -3241 -3466 -3739 -3651 -3856 -3818 -3607 -3468 -3712 -3936 -3887 -3800 -3868 -3991 -4103 -4146 -4062 -3979 -4093 -4103 -3958 -3916 -3986 -4167 -4084 -4042 -4028 -3998 -3915 -3799 -3767 -3761 -3696 -3553 -3700 -4161 -3916 -3650 -3563 -3497 -3566 -3998 -4390 -4352 -4369 -4224 -4183 -4257 -4311 -4329 -4347 -4405 -4346
-125 -154 -182 -202 -187 -190 -185 -188 -187 -183 -188 -165 -158 -183 -173 -161 -193 -207 -219 -215 -231 -249 -258 -211 -203 -152 -169 -180 -163 -130 -116 -120 -125 -119 -106 -126 -132 -128 -143 -138 -136 -123 -114 -127 -152 -164 -163 -159 -111 -81 -77 -82 -86 -92 -117 -125 -120 -100 -92 -97 -93 -109 -119 -138 -143 -142 -154 -157 -160 -150 -148 -151 -131 -129 -124 -112 -102 -114 -206 -206 -131 -139 -160 -174 -202 -212 -266 -327 -435 -585 -931 -1457 -1757 -1758 -2053 -2273 -1865 -1907 -2305 -2218 -2071 -2131 -2598 -2261 -2400 -3215 -2490 -2504 -2389 -2508 -2730 -2786 -3004 -3212 -3409 -3636 -3416 -3191 -3467 -3900 -3626 -3526 -3789 -3913 -3979 -3839 -3807 -3671 -3908 -4056 -3988 -3934 -3926 -4085 -4202 -4238 -4168 -4285 -4202 -4157 -4106 -4089 -4276 -4188 -4129 -4099 -4041 -3945 -3901 -3891 -3877 -3780 -3677 -3875 -4156 -4087 -3705 -3551 -3519 -3657 -4009 -4395 -4449 -4395 -4300 -4258 -4299 -4344 -4377 -4411 -4419 -4424
-113 -96 -181 -200 -201 -162 -184 -171 -175 -191 -172 -198 -163 -162 -206 -213 -209 -218 -242 -250 -235 -235 -248 -215 -209 -176 -178 -195 -224 -182 -155 -140 -142 -134 -147 -126 -139 -149 -140 -129 -126 -124 -129 -137 -151 -157 -152 -105 -90 -98 -89 -93 -86 -95 -105 -115 -117 -100 -108 -100 -99 -105 -131 -137 -157 -168 -163 -156 -151 -155 -147 -135 -128 -128 -120 -110 -116 -159 -644 -611 -457 -575 -608 -635 -668 -767 -722 -799 -900 -1003 -1194 -1496 -1797 -2236 -2273 -2106 -2270 -2287 -2411 -2658 -2450 -2357 -2902 -2557 -2591 -2741 -3290 -3221 -2781 -2831 -2926 -3092 -3297 -3521 -3636 -3698 -3831 -3519 -3561 -3912 -3814 -3818 -3896 -4004 -4103 -3988 -3937 -3805 -3835 -4032 -4102 -4066 -4113 -4175 -4291 -4334 -4280 -4309 -4275 -4240 -4194 -4174 -4317 -4256 -4212 -4190 -4123 -4042 -4021 -3980 -3920 -3905 -3824 -3701 -4196 -4224 -3915 -3855 -3695 -3676 -3900 -4424 -4492 -4439 -4430 -4328 -4326 -4374 -4389 -4424 -4461 -4468
-168 -96 -179 -206 -215 -176 -180 -196 -192 -188 -183 -186 -200 -200 -190 -191 -224 -220 -214 -208 -200 -203 -210 -208 -183 -191 -207 -212 -161 -150 -126 -85 -66 -47 -54 -66 -73 -82 -96 -109 -123 -122 -121 -123 -123 -120 -108 -96 -102 -100 -97 -97 -103 -108 -105 -107 -115 -117 -121 -115 -129 -198 -310 -232 -246 -293 -211 -222 -204 -256 -326 -278 -271 -395 -516 -588 -375 -652 -971 -1033 -926 -946 -953 -958 -1010 -1096 -1122 -1191 -1269 -1367 -1502 -1732 -2020 -2180 -2701 -2315 -2872 -2574 -2591 -2889 -2633 -2599 -2696 -2879 -2783 -2942 -3548 -3329 -3073 -3049 -3175 -3433 -3570 -3787 -3814 -3838 -3975 -4017 -3880 -3923 -4085 -3964 -4052 -4077 -4211 -4124 -4032 -3962 -3922 -4052 -4163 -4195 -4183 -4237 -4323 -4387 -4353 -4370 -4351 -4300 -4263 -4240 -4346 -4317 -4291 -4269 -4222 -4157 -4130 -4042 -4048 -3984 -3846 -3752 -3947 -4277 -4087 -3976 -3777 -3748 -3939 -4447 -4558 -4361 -4501 -4424 -4398 -4378 -4428 -4460 -4485 -4506
-156 -133 -145 -197 -186 -189 -173 -183 -184 -176 -183 -180 -177 -182 -180 -202 -188 -198 -188 -207 -216 -203 -205 -202 -190 -174 -169 -158 -157 -155 -134 -106 -81 -61 -59 -67 -76 -84 -95 -96 -96 -95 -96 -94 -95 -95 -95 -98 -100 -102 -113 -112 -111 -121 -115 -119 -125 -142 -281 -402 -448 -620 -727 -821 -843 -722 -801 -850 -926 -1012 -1097 -1215 -1140 -1149 -1161 -1165 -1235 -1305 -1294 -1294 -1157 -1223 -1223 -1250 -1297 -1455 -1520 -1536 -1627 -1756 -1917 -2107 -2215 -2479 -2596 -2602 -2686 -3176 -2976 -3299 -2916 -2866 -2996 -3289 -3101 -3144 -3167 -3738 -3574 -3449 -3695 -3824 -4003 -4014 -4036 -4013 -4074 -4150 -4089 -3973 -4063 -4095 -3996 -4149 -4314 -4245 -4164 -4128 -4103 -4107 -4196 -4288 -4294 -4305 -4375 -4458 -4453 -4423 -4400 -4366 -4325 -4318 -4387 -4373 -4349 -4334 -4288 -4235 -4206 -4160 -4108 -4030 -3927 -3799 -3921 -4307 -4246 -4033 -3987 -3929 -3955 -4167 -4612 -4683 -4451 -4537 -4522 -4495 -4484 -4489 -4566 -4612
-168 -163 -145 -174 -194 -203 -203 -202 -202 -189 -193 -195 -187 -192 -191 -179 -200 -205 -198 -244 -258 -261 -264 -280 -261 -238 -205 -179 -166 -165 -173 -154 -109 -65 -63 -68 -82 -83 -90 -90 -88 -90 -92 -91 -92 -93 -98 -103 -108 -111 -114 -120 -119 -124 -133 -156 -334 -603 -785 -824 -941 -1034 -1043 -1040 -1114 -758 -1149 -1208 -1291 -1431 -1443 -1487 -1539 -1509 -1480 -1550 -1594 -1524 -1482 -1454 -1416 -1458 -1484 -1576 -1608 -1716 -1835 -1971 -2033 -2157 -2250 -2380 -2584 -2696 -2845 -3321 -3003 -3093 -3393 -3325 -3247 -3086 -3156 -3213 -3661 -3400 -3452 -3572 -3920 -3976 -3961 -3979 -4044 -4107 -4163 -4204 -4187 -4242 -4268 -4172 -4120 -4176 -4209 -4335 -4302 -4335 -4267 -4243 -4225 -4212 -4283 -4360 -4349 -4441 -4414 -4523 -4547 -4507 -4494 -4418 -4382 -4355 -4374 -4456 -4421 -4406 -4381 -4354 -4295 -4262 -4208 -4133 -4073 -3976 -4009 -4283 -4426 -4148 -4154 -4154 -4071 -4017 -4210 -4453 -4548 -4582 -4507 -4601 -4567 -4563 -4646 -4680
-205 -198 -186 -194 -192 -208 -218 -198 -191 -190 -182 -179 -203 -221 -230 -224 -206 -215 -243 -270 -282 -294 -306 -309 -308 -277 -229 -229 -218 -211 -212 -201 -194 -191 -171 -146 -119 -94 -83 -92 -89 -90 -93 -94 -97 -99 -104 -109 -111 -114 -118 -120 -120 -140 -279 -623 -1015 -1203 -1124 -1136 -1126 -1232 -1303 -1325 -1383 -1408 -1466 -1534 -1551 -1624 -1686 -1713 -1769 -1723 -1713 -1737 -1766 -1690 -1636 -1582 -1633 -1754 -1811 -1897 -1971 -2055 -2199 -2316 -2353 -2539 -2586 -2655 -2792 -2947 -3080 -3366 -3169 -3312 -3323 -3545 -3482 -3375 -3393 -3333 -3621 -3718 -3789 -3752 -3921 -4078 -4121 -4112 -4098 -4176 -4205 -4272 -4310 -4319 -4323 -4288 -4277 -4244 -4304 -4340 -4372 -4438 -4377 -4330 -4321 -4322 -4376 -4443 -4422 -4421 -4491 -4569 -4592 -4559 -4561 -4470 -4449 -4433 -4428 -4554 -4497 -4474 -4458 -4426 -4399 -4364 -4321 -4264 -4230 -4140 -4077 -4322 -4467 -4279 -4250 -4284 -4164 -4102 -4247 -4339 -4497 -4668 -4416 -4443 -4532 -4610 -4643 -4625
-218 -218 -209 -181 -181 -203 -215 -214 -193 -183 -154 -174 -195 -218 -221 -216 -208 -256 -287 -307 -329 -340 -345 -335 -335 -304 -316 -311 -302 -275 -259 -248 -242 -233 -231 -221 -188 -136 -107 -89 -86 -94 -96 -102 -102 -107 -112 -114 -119 -128 -148 -140 -384 -687 -1073 -1280 -1432 -1427 -1358 -1353 -1391 -1549 -1566 -1630 -1580 -1599 -1652 -1693 -1746 -1782 -1830 -1903 -1856 -1832 -1866 -1933 -1908 -1876 -1842 -1882 -2004 -2018 -2050 -2209 -2293 -2373 -2482 -2616 -2683 -2815 -2880 -2814 -3081 -3114 -3293 -3506 -3677 -3428 -3459 -3497 -3821 -3526 -3559 -3554 -3722 -3930 -3935 -3913 -3972 -4083 -4174 -4289 -4215 -4246 -4329 -4370 -4412 -4420 -4411 -4390 -4373 -4365 -4365 -4398 -4450 -4474 -4454 -4416 -4397 -4404 -4456 -4490 -4490 -4482 -4514 -4589 -4646 -4594 -4621 -4516 -4484 -4484 -4492 -4648 -4565 -4549 -4535 -4509 -4487 -4458 -4416 -4376 -4334 -4272 -4247 -4126 -4138 -4501 -4487 -4443 -4353 -4282 -4131 -4352 -4552 -4538 -4428 -4407 -4456 -4508 -4673 -4692
-224 -212 -204 -203 -203 -183 -199 -207 -205 -193 -179 -182 -172 -175 -187 -201 -245 -273 -307 -327 -338 -351 -353 -355 -356 -352 -344 -338 -335 -316 -296 -267 -251 -246 -245 -246 -231 -200 -161 -101 -92 -94 -93 -103 -109 -113 -115 -122 -134 -248 -536 -931 -1326 -1427 -1597 -1696 -1645 -1582 -1597 -1593 -1619 -1687 -1827 -1785 -1726 -1773 -1798 -1892 -1933 -1912 -1986 -2061 -1993 -1992 -2053 -2106 -2068 -2087 -2127 -2159 -2237 -2341 -2341 -2481 -2578 -2669 -2758 -2860 -2943 -3108 -3208 -3212 -3322 -3481 -3556 -3604 -3665 -3688 -3594 -3596 -3806 -3658 -3720 -3791 -3849 -3952 -4088 -4097 -4097 -4141 -4241 -4313 -4361 -4327 -4383 -4445 -4497 -4507 -4507 -4494 -4472 -4469 -4477 -4485 -4520 -4520 -4535 -4490 -4469 -4474 -4526 -4549 -4549 -4534 -4574 -4625 -4671 -4623 -4643 -4602 -4538 -4534 -4537 -4679 -4618 -4601 -4589 -4586 -4552 -4523 -4499 -4452 -4390 -4333 -4240 -4135 -4045 -4095 -4242 -4346 -4431 -4386 -4283 -4237 -4536 -4758 -4609 -4491 -4478 -4491 -4509 -4631
-208 -212 -208 -192 -194 -166 -181 -204 -205 -196 -189 -178 -175 -194 -211 -221 -239 -263 -289 -284 -287 -287 -284 -293 -292 -304 -297 -298 -289 -280 -273 -264 -237 -225 -240 -264 -241 -224 -204 -154 -103 -100 -102 -109 -115 -124 -141 -418 -659 -883 -1286 -1524 -1667 -1636 -1730 -1829 -1801 -1742 -1700 -1750 -1762 -1849 -1922 -1945 -1904 -1934 -1981 -2039 -2111 -2133 -2132 -2242 -2217 -2288 -2281 -2264 -2277 -2305 -2386 -2420 -2495 -2571 -2598 -2741 -2878 -2950 -2987 -3038 -3133 -3357 -3511 -3527 -3679 -3665 -3694 -3643 -3748 -3811 -3717 -3700 -3936 -3848 -3822 -3900 -4010 -4043 -4091 -4190 -4216 -4242 -4292 -4375 -4430 -4457 -4463 -4508 -4560 -4583 -4598 -4586 -4536 -4542 -4559 -4581 -4593 -4583 -4615 -4562 -4541 -4535 -4587 -4584 -4583 -4578 -4618 -4655 -4729 -4672 -4684 -4637 -4609 -4577 -4568 -4656 -4669 -4655 -4652 -4638 -4612 -4593 -4553 -4498 -4455 -4392 -4303 -4238 -4159 -4148 -4339 -4318 -4392 -4379 -4294 -4261 -4409 -4671 -4764 -4723 -4702 -4668 -4601 -4614
-177 -182 -193 -198 -196 -180 -162 -188 -194 -194 -172 -190 -208 -233 -237 -224 -215 -237 -251 -239 -226 -216 -213 -210 -219 -227 -232 -231 -231 -229 -225 -218 -211 -208 -234 -249 -234 -231 -226 -222 -161 -111 -111 -120 -220 -532 -987 -1149 -1309 -1434 -1568 -1732 -1945 -1823 -1846 -1956 -2008 -1986 -1916 -1906 -1952 -2079 -2098 -2051 -2063 -2140 -2159 -2188 -2229 -2258 -2281 -2381 -2382 -2472 -2396 -2481 -2450 -2598 -2636 -2649 -2747 -2811 -2909 -2967 -3041 -3201 -3294 -3290 -3475 -3596 -3776 -3846 -3828 -3832 -3841 -3793 -3827 -3871 -3907 -3819 -3945 -4011 -3983 -3983 -4081 -4149 -4185 -4230 -4283 -4330 -4368 -4412 -4481 -4538 -4564 -4562 -4608 -4624 -4638 -4636 -4588 -4619 -4629 -4642 -4661 -4646 -4666 -4621 -4611 -4594 -4634 -4637 -4629 -4636 -4662 -4693 -4750 -4700 -4702 -4661 -4631 -4631 -4615 -4642 -4766 -4708 -4697 -4681 -4653 -4630 -4620 -4564 -4529 -4453 -4368 -4300 -4207 -4128 -4371 -4494 -4617 -4409 -4376 -4389 -4408 -4462 -4539 -4567 -4672 -4732 -4823 -4831
-137 -153 -168 -182 -195 -178 -171 -185 -184 -194 -197 -214 -236 -219 -208 -198 -184 -180 -186 -171 -130 -107 -86 -74 -77 -88 -91 -98 -96 -94 -108 -143 -164 -160 -175 -217 -225 -230 -246 -249 -276 -134 -159 -406 -960 -1238 -1263 -1606 -1598 -1679 -1808 -1905 -1963 -2029 -2016 -2055 -2090 -2155 -2097 -2095 -2083 -2182 -2263 -2275 -2262 -2247 -2348 -2389 -2395 -2432 -2485 -2566 -2598 -2634 -2643 -2673 -2724 -2740 -2850 -2918 -2868 -2979 -3068 -3188 -3166 -3449 -3511 -3693 -3664 -3756 -3895 -4000 -3940 -3956 -3963 -3923 -3915 -3961 -3997 -3902 -3978 -4233 -4136 -4134 -4172 -4239 -4287 -4283 -4349 -4383 -4426 -4467 -4510 -4552 -4617 -4638 -4641 -4659 -4681 -4654 -4612 -4690 -4726 -4734 -4731 -4663 -4653 -4683 -4663 -4630 -4662 -4662 -4673 -4690 -4717 -4748 -4802 -4732 -4719 -4682 -4669 -4661 -4670 -4655 -4706 -4773 -4739 -4728 -4724 -4678 -4661 -4627 -4585 -4520 -4474 -4398 -4312 -4245 -4408 -4640 -4511 -4430 -4413 -4467 -4492 -4530 -4556 -4570 -4562 -4551 -4599 -4707
-142 -127 -145 -157 -164 -174 -179 -179 -180 -208 -223 -218 -197 -195 -189 -183 -159 -93 -65 -51 -49 -42 -49 -54 -51 -62 -74 -76 -74 -80 -79 -82 -86 -87 -93 -94 -151 -216 -255 -257 -265 -531 -972 -1083 -1318 -1469 -1587 -1853 -1839 -1887 -1956 -2021 -2089 -2159 -2155 -2166 -2226 -2212 -2274 -2283 -2315 -2355 -2386 -2397 -2428 -2429 -2491 -2546 -2601 -2664 -2658 -2769 -2783 -2792 -2796 -2860 -2897 -2978 -2997 -2984 -3108 -3156 -3301 -3356 -3507 -3584 -3734 -3808 -3877 -3891 -3950 -4050 -4136 -4052 -4079 -4051 -4052 -4082 -4082 -4026 -4041 -4123 -4355 -4272 -4283 -4303 -4351 -4381 -4422 -4443 -4479 -4533 -4540 -4587 -4658 -4685 -4692 -4728 -4733 -4723 -4705 -4735 -4751 -4759 -4753 -4742 -4732 -4741 -4721 -4712 -4722 -4717 -4729 -4746 -4745 -4794 -4780 -4764 -4747 -4726 -4737 -4737 -4743 -4752 -4763 -4810 -4806 -4785 -4759 -4735 -4719 -4699 -4650 -4609 -4549 -4501 -4433 -4360 -4440 -4661 -4541 -4477 -4492 -4528 -4564 -4582 -4616 -4641 -4655 -4644 -4626 -4614
-179 -129 -132 -139 -160 -169 -175 -178 -189 -204 -223 -209 -185 -172 -96 -59 -47 -43 -43 -26 -53 -48 -50 -58 -57 -60 -65 -67 -66 -78 -84 -83 -76 -77 -78 -122 -87 -123 -196 -242 -559 -665 -1208 -1400 -1598 -1669 -1811 -1912 -2067 -2079 -2092 -2184 -2223 -2262 -2299 -2307 -2387 -2368 -2444 -2444 -2495 -2503 -2517 -2602 -2548 -2657 -2676 -2688 -2719 -2844 -2830 -2980 -2973 -3027 -2949 -3018 -3039 -3060 -3172 -3205 -3292 -3362 -3436 -3494 -3601 -3713 -3859 -3926 -4000 -4020 -4049 -4128 -4216 -4188 -4170 -4160 -4156 -4156 -4190 -4148 -4168 -4212 -4251 -4470 -4410 -4417 -4411 -4458 -4480 -4501 -4550 -4580 -4607 -4626 -4692 -4703 -4721 -4759 -4772 -4742 -4746 -4759 -4779 -4821 -4804 -4798 -4801 -4784 -4766 -4763 -4776 -4771 -4778 -4783 -4792 -4853 -4814 -4796 -4765 -4767 -4768 -4772 -4777 -4800 -4798 -4838 -4855 -4828 -4805 -4795 -4771 -4746 -4707 -4683 -4622 -4564 -4540 -4466 -4398 -4614 -4641 -4540 -4540 -4577 -4616 -4647 -4671 -4682 -4707 -4705 -4708 -4687
-168 -153 -153 -148 -163 -168 -180 -193 -198 -211 -190 -172 -95 -62 -41 -35 -35 -30 -45 -54 -36 -49 -56 -52 -62 -64 -61 -66 -75 -70 -81 -84 -78 -77 -92 -93 -70 -107 -136 -344 -562 -1097 -1502 -1678 -1767 -1859 -1950 -2099 -2179 -2288 -2294 -2306 -2354 -2473 -2505 -2522 -2564 -2551 -2580 -2607 -2622 -2665 -2649 -2616 -2789 -2820 -2729 -2855 -2882 -2996 -3072 -3117 -3090 -3109 -3074 -3125 -3178 -3246 -3316 -3370 -3385 -3485 -3555 -3617 -3656 -3878 -3931 -4019 -4049 -4122 -4157 -4195 -4271 -4287 -4268 -4269 -4239 -4279 -4277 -4241 -4276 -4315 -4341 -4393 -4514 -4532 -4533 -4520 -4529 -4564 -4591 -4635 -4664 -4683 -4710 -4725 -4749 -4763 -4794 -4806 -4791 -4770 -4819 -4827 -4833 -4841 -4829 -4826 -4815 -4816 -4822 -4818 -4823 -4826 -4852 -4877 -4834 -4816 -4791 -4801 -4809 -4816 -4819 -4840 -4837 -4868 -4883 -4865 -4849 -4839 -4817 -4787 -4757 -4722 -4685 -4637 -4595 -4564 -4485 -4456 -4695 -4660 -4563 -4604 -4644 -4681 -4702 -4719 -4733 -4740 -4749 -4732
-159 -160 -162 -167 -173 -172 -194 -209 -203 -111 -83 -62 -48 -37 -34 -30 -36 -45 -38 -49 -51 -49 -60 -57 -64 -61 -60 -62 -69 -87 -73 -81 -81 -85 -84 -93 -105 -132 -128 -177 -944 -1384 -1676 -1844 -2006 -2030 -2069 -2224 -2311 -2362 -2432 -2519 -2491 -2579 -2651 -2699 -2699 -2706 -2717 -2758 -2727 -2825 -2836 -2910 -2975 -2979 -3033 -3088 -3073 -3122 -3187 -3270 -3262 -3265 -3319 -3329 -3308 -3355 -3444 -3502 -3534 -3580 -3631 -3785 -3843 -3992 -4029 -4134 -4174 -4191 -4241 -4265 -4319 -4386 -4327 -4348 -4345 -4408 -4394 -4332 -4380 -4415 -4446 -4498 -4537 -4599 -4646 -4623 -4599 -4625 -4635 -4673 -4718 -4759 -4747 -4756 -4768 -4779 -4803 -4812 -4844 -4815 -4836 -4855 -4861 -4871 -4875 -4868 -4872 -4865 -4869 -4864 -4858 -4858 -4912 -4867 -4866 -4844 -4838 -4839 -4844 -4853 -4864 -4887 -4885 -4921 -4921 -4899 -4887 -4874 -4859 -4828 -4817 -4780 -4734 -4698 -4663 -4626 -4576 -4518 -4535 -4725 -4736 -4724 -4657 -4690 -4719 -4744 -4769 -4770 -4781 -4798
-171 -166 -162 -168 -178 -176 -167 -169 -77 -44 -44 -33 -30 -29 -29 -33 -55 -31 -50 -35 -40 -50 -57 -58 -59 -50 -63 -64 -63 -93 -72 -82 -84 -84 -87 -95 -97 -247 -130 -606 -1091 -1655 -1823 -1922 -2155 -2204 -2244 -2303 -2518 -2501 -2579 -2637 -2653 -2681 -2785 -2814 -2805 -2866 -2922 -2947 -2889 -2994 -2997 -2994 -3092 -3078 -3131 -3166 -3146 -3218 -3332 -3336 -3406 -3430 -3461 -3471 -3426 -3442 -3525 -3566 -3610 -3695 -3742 -3829 -3925 -3971 -4168 -4214 -4249 -4292 -4288 -4334 -4350 -4412 -4394 -4391 -4420 -4478 -4451 -4422 -4464 -4484 -4520 -4548 -4595 -4615 -4684 -4689 -4663 -4672 -4690 -4707 -4752 -4783 -4770 -4783 -4809 -4805 -4811 -4853 -4862 -4880 -4855 -4885 -4887 -4889 -4900 -4900 -4909 -4896 -4894 -4891 -4890 -4903 -4933 -4894 -4897 -4888 -4881 -4887 -4885 -4892 -4912 -4920 -4914 -4965 -4950 -4932 -4917 -4906 -4895 -4872 -4860 -4831 -4796 -4768 -4733 -4690 -4648 -4586 -4534 -4626 -4759 -4749 -4748 -4732 -4759 -4761 -4806 -4822 -4831 -4843
-147 -115 -140 -151 -145 -149 -150 -27 -53 -34 -29 -32 -29 -33 -17 -17 -36 -45 -44 -62 -50 -49 -54 -57 -58 -61 -63 -70 -81 -77 -76 -77 -82 -81 -89 -100 -96 -92 -578 -934 -1467 -1850 -1902 -2047 -2366 -2337 -2422 -2498 -2622 -2709 -2743 -2732 -2802 -2822 -2922 -2993 -2987 -2989 -3038 -3069 -3054 -3113 -3131 -3150 -3237 -3206 -3241 -3277 -3337 -3352 -3440 -3480 -3524 -3556 -3616 -3632 -3614 -3652 -3660 -3752 -3792 -3908 -3945 -3967 -4011 -4108 -4216 -4300 -4317 -4334 -4368 -4371 -4390 -4435 -4447 -4442 -4455 -4517 -4503 -4518 -4530 -4553 -4590 -4609 -4638 -4661 -4678 -4738 -4727 -4721 -4741 -4753 -4803 -4821 -4818 -4830 -4843 -4835 -4825 -4846 -4871 -4884 -4915 -4917 -4906 -4904 -4910 -4919 -4922 -4933 -4920 -4918 -4922 -4965 -4922 -4921 -4920 -4925 -4917 -4916 -4917 -4942 -4971 -4950 -4961 -4986 -4977 -4962 -4958 -4944 -4935 -4916 -4899 -4875 -4852 -4826 -4801 -4752 -4714 -4665 -4614 -4530 -4610 -4729 -4778 -4793 -4866 -4815 -4837 -4832 -4846 -4854
-127 -146 -152 -146 -134 -117 -88 -53 -38 -30 -14 -25 -30 -22 -30 -39 -12 -28 -39 -41 -35 -51 -51 -59 -60 -65 -69 -74 -80 -81 -86 -84 -83 -89 -95 -99 -118 -272 -1083 -1544 -1970 -2175 -2076 -2279 -2447 -2466 -2624 -2670 -2762 -2859 -2856 -2896 -2928 -2944 -3046 -3095 -3122 -3157 -3147 -3195 -3220 -3273 -3280 -3352 -3408 -3413 -3426 -3427 -3472 -3526 -3552 -3617 -3644 -3665 -3732 -3745 -3742 -3799 -3769 -3815 -3912 -3922 -4017 -4083 -4111 -4175 -4251 -4330 -4381 -4399 -4415 -4429 -4443 -4459 -4492 -4474 -4479 -4557 -4564 -4557 -4594 -4591 -4611 -4642 -4678 -4698 -4721 -4729 -4767 -4762 -4772 -4786 -4813 -4824 -4830 -4851 -4868 -4857 -4858 -4866 -4889 -4889 -4909 -4923 -4939 -4933 -4936 -4949 -4955 -4949 -4946 -4946 -4973 -4959 -4937 -4951 -4943 -4952 -4955 -4954 -4970 -4990 -4984 -4984 -5023 -5016 -4998 -4981 -4978 -4964 -4958 -4949 -4935 -4920 -4898 -4876 -4847 -4828 -4769 -4715 -4678 -4598 -4564 -4584 -4643 -4679 -4712 -4733 -4771 -4795 -4820 -4849
-148 -141 -141 -137 -107 -94 -87 -65 -46 -44 -47 -29 -25 -36 -17 -27 -36 -34 -37 -40 -47 -45 -53 -58 -61 -66 -69 -70 -75 -82 -86 -97 -87 -82 -104 -111 -155 -555 -1490 -1804 -2072 -2282 -2432 -2448 -2610 -2664 -2712 -2833 -2878 -3022 -3057 -3082 -3118 -3175 -3214 -3256 -3288 -3346 -3336 -3366 -3412 -3467 -3463 -3496 -3512 -3517 -3530 -3514 -3553 -3626 -3648 -3704 -3725 -3698 -3751 -3831 -3895 -3905 -3924 -3921 -3969 -4043 -4091 -4181 -4221 -4256 -4337 -4370 -4406 -4449 -4462 -4473 -4491 -4511 -4525 -4513 -4509 -4545 -4597 -4616 -4620 -4648 -4655 -4680 -4711 -4733 -4754 -4766 -4780 -4794 -4794 -4808 -4826 -4840 -4845 -4855 -4866 -4878 -4944 -5004 -4928 -4906 -4933 -4939 -4944 -4958 -5025 -5016 -4977 -4966 -4969 -4971 -4998 -4970 -4966 -4995 -4968 -4973 -4981 -4989 -5004 -5001 -5001 -5014 -5047 -5035 -5019 -5009 -5005 -5000 -4988 -4977 -4968 -4958 -4941 -4922 -4901 -4877 -4834 -4793 -4741 -4680 -4624 -4658 -4656 -4688 -4721 -4748 -4760 -4761 -4776 -4820
-146 -141 -132 -113 -93 -82 -76 -64 -55 -41 -40 -33 -29 -40 -32 -32 -37 -32 -35 -39 -46 -47 -50 -58 -61 -65 -72 -79 -82 -85 -90 -91 -90 -290 -231 -662 -798 -992 -1750 -2249 -2332 -2447 -2597 -2465 -2706 -2709 -2850 -2951 -3003 -3072 -3173 -3182 -3276 -3288 -3344 -3375 -3415 -3435 -3420 -3471 -3472 -3574 -3575 -3605 -3621 -3663 -3628 -3586 -3628 -3719 -3761 -3816 -3838 -3817 -3835 -3889 -3969 -4010 -4019 -4066 -4078 -4128 -4202 -4248 -4340 -4329 -4373 -4416 -4451 -4486 -4502 -4513 -4526 -4545 -4552 -4551 -4534 -4559 -4609 -4635 -4656 -4668 -4673 -4701 -4730 -4761 -4787 -4793 -4795 -4812 -4822 -4832 -4832 -4793 -4830 -4883 -4890 -4901 -4892 -4894 -4911 -4943 -4946 -4965 -4964 -4969 -4981 -4943 -4984 -4982 -4983 -4987 -5011 -4988 -5000 -5011 -4988 -4994 -5012 -5017 -5022 -5027 -5034 -5072 -5064 -5050 -5035 -5035 -5022 -5022 -5020 -5013 -5006 -4992 -4978 -4958 -4935 -4927 -4884 -4846 -4805 -4751 -4737 -4714 -4738 -4770 -4784 -4791 -4809 -4816 -4817 -4817
-149 -130 -111 -88 -75 -64 -60 -53 -53 -46 -44 -19 -32 -26 -37 -35 -35 -38 -37 -36 -42 -47 -56 -60 -63 -67 -71 -74 -82 -86 -92 -95 -111 -147 -357 -1093 -1014 -1416 -1793 -2395 -2504 -2608 -2705 -2592 -2731 -2857 -2980 -3052 -3139 -3184 -3289 -3352 -3409 -3419 -3417 -3526 -3530 -3546 -3554 -3590 -3574 -3675 -3717 -3729 -3740 -3761 -3765 -3783 -3794 -3856 -3846 -3890 -3940 -3931 -3910 -3954 -3984 -4032 -4076 -4171 -4165 -4215 -4279 -4359 -4387 -4412 -4433 -4474 -4497 -4515 -4532 -4554 -4564 -4582 -4585 -4577 -4567 -4582 -4610 -4646 -4670 -4689 -4711 -4725 -4761 -4791 -4811 -4824 -4836 -4835 -4843 -4861 -4871 -4855 -4871 -4886 -4903 -4924 -4920 -4915 -4940 -4948 -4952 -4963 -4984 -4977 -4979 -4994 -5006 -5008 -5003 -4997 -5023 -5016 -5021 -5020 -5011 -5021 -5033 -5034 -5035 -5047 -5087 -5075 -5072 -5057 -5054 -5052 -5050 -5041 -5043 -5030 -5024 -5026 -5015 -4997 -4981 -4968 -4946 -4912 -4882 -4836 -4811 -4811 -4778 -4800 -4815 -4841 -4818 -4879 -4846 -4867
-128 -101 -92 -69 -61 -59 -54 -52 -47 -45 -36 -42 -41 -32 -40 -41 -34 -37 -43 -44 -52 -55 -60 -63 -63 -67 -71 -73 -74 -90 -110 -121 -112 -381 -1150 -1795 -1686 -2120 -2271 -2597 -2704 -2749 -2845 -2761 -2870 -2860 -3098 -3181 -3257 -3307 -3453 -3468 -3545 -3578 -3552 -3642 -3655 -3672 -3681 -3722 -3683 -3773 -3833 -3841 -3851 -3863 -3861 -3842 -3910 -4055 -3948 -3960 -3964 -4011 -4022 -4045 -4076 -4107 -4197 -4215 -4296 -4296 -4362 -4422 -4469 -4510 -4493 -4498 -4514 -4550 -4575 -4594 -4610 -4623 -4616 -4604 -4609 -4618 -4648 -4669 -4712 -4739 -4742 -4764 -4785 -4820 -4838 -4849 -4868 -4853 -4870 -4870 -4886 -4896 -4887 -4910 -4912 -4924 -4915 -4942 -4939 -4956 -4968 -4988 -4995 -4995 -5000 -5000 -5000 -4997 -5015 -5012 -5009 -5064 -5048 -5037 -5035 -5040 -5054 -5055 -5065 -5106 -5089 -5103 -5085 -5077 -5072 -5073 -5070 -5069 -5060 -5057 -5050 -5049 -5041 -5032 -5022 -5007 -4991 -4985 -4939 -4904 -4878 -4835 -4826 -4835 -4840 -4869 -4900 -4896 -4907 -4925
-98 -93 -78 -63 -62 -57 -53 -42 -43 -38 -44 -44 -43 -48 -36 -41 -50 -52 -55 -56 -53 -59 -61 -64 -64 -67 -70 -74 -78 -88 -97 -137 -288 -822 -1461 -1815 -2102 -2463 -2653 -2769 -2773 -2854 -2909 -3006 -2975 -3021 -3147 -3357 -3375 -3432 -3514 -3559 -3650 -3695 -3709 -3693 -3690 -3781 -3724 -3773 -3794 -3886 -3951 -3951 -3979 -3979 -3998 -4004 -3987 -4028 -4063 -4071 -4082 -4105 -4147 -4127 -4187 -4197 -4263 -4319 -4385 -4426 -4453 -4498 -4534 -4559 -4570 -4563 -4554 -4575 -4603 -4633 -4638 -4654 -4659 -4632 -4637 -4663 -4677 -4703 -4739 -4769 -4791 -4803 -4811 -4847 -4855 -4865 -4875 -4898 -4878 -4890 -4900 -4915 -4917 -4912 -4945 -4945 -4941 -4958 -4973 -4988 -4983 -4976 -4978 -5019 -5012 -4999 -4978 -4981 -5021 -5019 -5026 -5026 -5080 -5054 -5052 -5054 -5064 -5073 -5088 -5109 -5108 -5091 -5099 -5096 -5093 -5088 -5086 -5080 -5084 -5075 -5077 -5053 -5070 -5069 -5029 -5023 -5009 -4995 -4985 -4951 -4934 -4895 -4920 -4892 -4925 -4917 -4911 -4919 -4943 -4957
-83 -73 -63 -66 -58 -52 -23 -46 -32 -43 -42 -36 -54 -43 -49 -52 -52 -58 -60 -61 -64 -65 -67 -67 -70 -70 -75 -76 -77 -87 -97 -453 -776 -1516 -2048 -1892 -2470 -2382 -2456 -2769 -2973 -2856 -3091 -3127 -3169 -3131 -3231 -3410 -3511 -3573 -3613 -3657 -3711 -3806 -3826 -3847 -3874 -3929 -3899 -3897 -3887 -3957 -4018 -4035 -4065 -4191 -4079 -4111 -4120 -4099 -4147 -4167 -4172 -4181 -4232 -4240 -4253 -4308 -4340 -4404 -4448 -4514 -4553 -4572 -4597 -4623 -4620 -4607 -4614 -4622 -4641 -4648 -4669 -4683 -4674 -4667 -4672 -4696 -4716 -4740 -4766 -4805 -4822 -4851 -4869 -4871 -4879 -4891 -4897 -4905 -4893 -4899 -4922 -4929 -4932 -4937 -4965 -4982 -4972 -4972 -4989 -4984 -4975 -4980 -4986 -5007 -5012 -5087 -5108 -5119 -5072 -5036 -5041 -5034 -5078 -5081 -5072 -5071 -5075 -5089 -5102 -5125 -5113 -5184 -5114 -5112 -5109 -5104 -5104 -5110 -5108 -5108 -5101 -5098 -5091 -5090 -5081 -5078 -5067 -5057 -5044 -5030 -5009 -4996 -4982 -4984 -4975 -4978 -4988 -4996 -5003 -5000
-81 -73 -71 -67 -54 -38 -42 -43 -46 -52 -41 -46 -51 -55 -49 -57 -63 -65 -67 -70 -71 -74 -75 -76 -73 -75 -76 -79 -88 -106 -161 -452 -1535 -2130 -2110 -2501 -2588 -2681 -2659 -2783 -2841 -3189 -3131 -3230 -3307 -3284 -3279 -3542 -3635 -3707 -3690 -3752 -3815 -3890 -3951 -3969 -3983 -4040 -4038 -4049 -4022 -4034 -4092 -4134 -4151 -4193 -4218 -4251 -4225 -4205 -4217 -4234 -4265 -4265 -4300 -4323 -4365 -4415 -4443 -4485 -4534 -4586 -4619 -4629 -4634 -4661 -4671 -4646 -4650 -4654 -4663 -4671 -4699 -4704 -4694 -4689 -4694 -4716 -4742 -4769 -4792 -4827 -4850 -4867 -4887 -4890 -4899 -4909 -4914 -4920 -4918 -4923 -4936 -4957 -4964 -4972 -4975 -4979 -4978 -4982 -4998 -5004 -4994 -5001 -5024 -5026 -5023 -4999 -5011 -5021 -5054 -5068 -5055 -5055 -5083 -5092 -5091 -5091 -5085 -5092 -5125 -5128 -5119 -5134 -5127 -5111 -5128 -5130 -5117 -5113 -5118 -5137 -5099 -5083 -5122 -5090 -5092 -5088 -5077 -5040 -5037 -5044 -5036 -5027 -5024 -5004 -5028 -5029 -5029 -5027 -5040 -5035
-79 -68 -70 -65 -55 -43 -38 -44 -45 -47 -57 -58 -50 -57 -62 -63 -66 -69 -74 -79 -81 -84 -85 -85 -83 -88 -91 -99 -114 -264 -608 -1302 -1987 -2220 -2284 -2598 -2772 -2890 -2957 -3015 -3018 -3112 -3287 -3323 -3414 -3544 -3483 -3637 -3768 -3840 -3857 -3851 -3933 -3991 -4051 -4085 -4110 -4145 -4102 -4137 -4120 -4155 -4185 -4204 -4213 -4241 -4270 -4283 -4304 -4275 -4288 -4305 -4347 -4345 -4365 -4428 -4450 -4498 -4540 -4576 -4624 -4669 -4673 -4683 -4686 -4698 -4715 -4700 -4673 -4672 -4693 -4695 -4709 -4730 -4719 -4723 -4728 -4742 -4762 -4786 -4830 -4847 -4879 -4901 -4927 -4916 -4919 -4928 -4928 -4933 -4933 -4932 -4951 -4965 -4982 -4993 -5004 -4988 -4990 -4991 -5001 -5019 -5016 -5014 -5021 -5016 -5022 -5006 -5066 -5083 -5075 -5074 -5081 -5074 -5097 -5110 -5116 -5068 -5076 -5142 -5131 -5126 -5126 -5142 -5142 -5116 -5115 -5145 -5142 -5125 -5125 -5129 -5106 -5112 -5163 -5111 -5121 -5166 -5104 -5078 -5093 -5067 -5069 -5051 -5051 -5045 -5045 -5044 -5048 -5060 -5065 -5062
-73 -66 -67 -63 -58 -49 -55 -53 -50 -49 -57 -62 -67 -66 -67 -70 -69 -77 -81 -85 -89 -94 -91 -91 -96 -97 -105 -148 -324 -816 -1418 -1911 -2111 -2378 -2616 -2853 -2891 -3018 -3078 -3134 -3196 -3199 -3291 -3454 -3459 -3582 -3701 -3775 -3870 -3914 -3920 -4012 -4024 -4090 -4151 -4201 -4212 -4206 -4228 -4246 -4205 -4253 -4243 -4280 -4284 -4322 -4316 -4350 -4380 -4371 -4378 -4403 -4424 -4438 -4446 -4485 -4523 -4569 -4609 -4662 -4699 -4709 -4720 -4737 -4743 -4743 -4766 -4718 -4694 -4705 -4708 -4720 -4739 -4757 -4746 -4753 -4748 -4772 -4790 -4816 -4858 -4880 -4899 -4908 -4918 -4923 -4929 -4934 -4938 -4934 -4953 -4950 -4959 -4993 -5013 -5003 -5016 -5005 -5006 -5009 -5024 -5029 -5036 -5025 -5027 -5027 -5038 -5071 -5075 -5095 -5093 -5106 -5125 -5180 -5193 -5151 -5081 -5068 -5125 -5162 -5139 -5150 -5156 -5147 -5144 -5132 -5140 -5137 -5153 -5152 -5136 -5140 -5151 -5135 -5137 -5135 -5142 -5128 -5118 -5103 -5067 -5102 -5079 -5084 -5075 -5069 -5065 -5069 -5075 -5081 -5088 -5087
-68 -65 -64 -64 -59 -55 -52 -58 -57 -63 -69 -75 -78 -76 -73 -70 -77 -83 -85 -90 -94 -95 -99 -101 -114 -138 -196 -426 -1176 -1675 -1903 -2131 -2411 -2594 -2720 -2890 -3072 -3161 -3246 -3285 -3308 -3322 -3451 -3569 -3636 -3708 -3826 -3863 -3952 -4005 -4095 -4116 -4130 -4226 -4258 -4277 -4290 -4329 -4317 -4331 -4298 -4323 -4333 -4353 -4347 -4370 -4410 -4411 -4460 -4457 -4451 -4458 -4487 -4518 -4534 -4539 -4566 -4612 -4671 -4702 -4718 -4742 -4776 -4775 -4780 -4791 -4795 -4737 -4738 -4729 -4741 -4756 -4765 -4796 -4798 -4792 -4801 -4809 -4832 -4864 -4870 -4890 -4898 -4920 -4939 -4934 -4933 -4957 -4962 -4946 -4959 -4977 -4975 -5003 -5017 -5029 -5024 -5032 -5031 -5035 -5050 -5051 -5025 -5052 -5048 -5035 -5050 -5080 -5085 -5104 -5123 -5133 -5161 -5235 -5171 -5095 -5073 -5083 -5112 -5133 -5144 -5158 -5166 -5148 -5141 -5127 -5133 -5152 -5160 -5158 -5168 -5161 -5161 -5155 -5149 -5144 -5136 -5125 -5102 -5112 -5124 -5106 -5105 -5109 -5111 -5099 -5096 -5096 -5098 -5098 -5103 -5104
-63 -63 -64 -61 -59 -58 -64 -69 -74 -80 -83 -84 -84 -85 -81 -76 -74 -87 -93 -93 -97 -102 -109 -165 -206 -251 -569 -1133 -1585 -2023 -2357 -2323 -2581 -2807 -2850 -3073 -3175 -3269 -3336 -3421 -3450 -3521 -3554 -3638 -3757 -3809 -3890 -3954 -4027 -4089 -4151 -4232 -4230 -4261 -4298 -4340 -4360 -4400 -4352 -4380 -4381 -4405 -4385 -4413 -4404 -4441 -4479 -4491 -4500 -4528 -4519 -4533 -4537 -4553 -4595 -4595 -4610 -4637 -4685 -4710 -4747 -4770 -4800 -4819 -4815 -4822 -4828 -4775 -4757 -4760 -4766 -4775 -4802 -4824 -4829 -4807 -4839 -4858 -4875 -4892 -4905 -4918 -4940 -4943 -4952 -4953 -4950 -4957 -4971 -4970 -4972 -4990 -5010 -5017 -5040 -5025 -5041 -5043 -5052 -5053 -5057 -5052 -5036 -5055 -5079 -5071 -5070 -5082 -5097 -5124 -5150 -5169 -5194 -5177 -5113 -5104 -5106 -5114 -5131 -5165 -5176 -5176 -5165 -5161 -5155 -5152 -5165 -5171 -5171 -5166 -5164 -5175 -5171 -5151 -5166 -5155 -5149 -5129 -5109 -5147 -5123 -5120 -5119 -5119 -5135 -5120 -5125 -5125 -5120 -5121 -5119 -5122
-68 -68 -65 -66 -65 -71 -76 -86 -90 -93 -95 -96 -94 -93 -94 -103 -112 -106 -106 -114 -136 -105 -171 -257 -765 -778 -1594 -1760 -1950 -1952 -2138 -2359 -2650 -3002 -2904 -3232 -3294 -3438 -3455 -3567 -3643 -3660 -3777 -3777 -3904 -3961 -4016 -4089 -4165 -4227 -4291 -4340 -4383 -4389 -4432 -4465 -4488 -4468 -4490 -4514 -4512 -4511 -4488 -4478 -4498 -4526 -4528 -4560 -4545 -4538 -4555 -4598 -4620 -4643 -4616 -4667 -4652 -4678 -4723 -4749 -4780 -4827 -4832 -4859 -4857 -4871 -4845 -4812 -4793 -4814 -4811 -4832 -4856 -4855 -4886 -4881 -4895 -4905 -4908 -4918 -4934 -4939 -4953 -4967 -4975 -4971 -4984 -4978 -4990 -4976 -4985 -5000 -5010 -5043 -5042 -5059 -5046 -5057 -5058 -5063 -5069 -5076 -5070 -5069 -5087 -5097 -5088 -5085 -5135 -5151 -5172 -5219 -5268 -5115 -5112 -5124 -5128 -5140 -5145 -5170 -5171 -5170 -5176 -5167 -5170 -5166 -5169 -5175 -5173 -5167 -5174 -5165 -5173 -5186 -5168 -5175 -5134 -5124 -5161 -5118 -5133 -5139 -5134 -5132 -5140 -5133 -5141 -5140 -5133 -5141 -5113 -5145
-74 -72 -71 -74 -78 -83 -90 -93 -100 -113 -250 -130 -121 -117 -117 -141 -215 -143 -137 -331 -192 -266 -577 -751 -1246 -1961 -1898 -2214 -2175 -2362 -2457 -2372 -2568 -2931 -3256 -3193 -3317 -3517 -3608 -3591 -3702 -3737 -3774 -3866 -3942 -4003 -4055 -4114 -4170 -4251 -4314 -4386 -4441 -4445 -4465 -4499 -4529 -4514 -4553 -4568 -4541 -4541 -4524 -4525 -4543 -4556 -4579 -4592 -4583 -4586 -4616 -4637 -4660 -4687 -4674 -4684 -4701 -4726 -4762 -4790 -4815 -4844 -4871 -4881 -4899 -4886 -4860 -4843 -4828 -4842 -4836 -4894 -4907 -4886 -4920 -4937 -4940 -4945 -4959 -4976 -4989 -5002 -5009 -5019 -5026 -5031 -5037 -5038 -5041 -5043 -5049 -5059 -5075 -5081 -5087 -5098 -5102 -5104 -5108 -5105 -5106 -5112 -5110 -5097 -5110 -5114 -5104 -5096 -5130 -5152 -5135 -5175 -5134 -5124 -5137 -5138 -5153 -5143 -5141 -5147 -5159 -5163 -5178 -5180 -5178 -5173 -5177 -5177 -5181 -5177 -5180 -5174 -5172 -5166 -5178 -5168 -5149 -5175 -5140 -5160 -5160 -5156 -5153 -5150 -5151 -5158 -5156 -5160 -5158 -5154 -5156 -5145
-80 -81 -81 -85 -89 -89 -98 -104 -116 -130 -271 -143 -142 -253 -156 -146 -630 -191 -258 -898 -749 -1130 -1633 -1735 -1907 -2089 -2411 -2144 -2528 -2672 -2801 -2608 -2623 -2760 -3160 -3341 -3492 -3494 -3626 -3721 -3737 -3815 -3886 -3948 -3997 -4108 -4131 -4189 -4264 -4329 -4391 -4452 -4511 -4529 -4544 -4517 -4585 -4578 -4589 -4613 -4612 -4616 -4570 -4579 -4582 -4590 -4611 -4646 -4654 -4646 -4666 -4688 -4708 -4734 -4712 -4712 -4760 -4781 -4820 -4835 -4855 -4874 -4902 -4914 -4919 -4907 -4873 -4877 -4873 -4863 -4858 -4836 -4888 -4896 -4902 -4905 -4901 -4922 -4930 -4930 -4955 -4967 -4972 -4977 -4976 -5002 -5034 -5038 -5033 -5047 -5066 -5052 -5062 -5049 -5068 -5105 -5111 -5127 -5173 -5153 -5149 -5149 -5151 -5153 -5149 -5147 -5145 -5145 -5146 -5161 -5165 -5154 -5149 -5154 -5154 -5166 -5167 -5163 -5156 -5165 -5165 -5169 -5180 -5190 -5177 -5183 -5179 -5179 -5182 -5192 -5198 -5190 -5184 -5168 -5126 -5162 -5190 -5174 -5175 -5182 -5176 -5171 -5167 -5166 -5164 -5168 -5167 -5176 -5168 -5165 -5153 -5148
-90 -93 -92 -97 -100 -104 -117 -138 -151 -154 -349 -192 -201 -227 -624 -501 -1147 -807 -1145 -1323 -1541 -1881 -1973 -2131 -2131 -2161 -2372 -2423 -2570 -2668 -2889 -3123 -2880 -2891 -3138 -3405 -3507 -3716 -3651 -3753 -3847 -3852 -3933 -4062 -4061 -4167 -4222 -4273 -4347 -4395 -4468 -4519 -4560 -4590 -4600 -4582 -4621 -4645 -4629 -4652 -4685 -4658 -4637 -4624 -4638 -4648 -4652 -4668 -4690 -4704 -4703 -4750 -4737 -4754 -4781 -4764 -4780 -4808 -4857 -4876 -4893 -4907 -4923 -4946 -4952 -4931 -4924 -4912 -4896 -4920 -4903 -4913 -4912 -4918 -4907 -4918 -4918 -4920 -4930 -4898 -4937 -4980 -4974 -5006 -5011 -5003 -5026 -5030 -5058 -5052 -5060 -5071 -5071 -5074 -5093 -5098 -5105 -5115 -5115 -5119 -5124 -5129 -5135 -5141 -5145 -5141 -5147 -5148 -5153 -5170 -5179 -5143 -5174 -5197 -5169 -5197 -5226 -5218 -5189 -5204 -5205 -5208 -5211 -5211 -5204 -5206 -5208 -5214 -5220 -5231 -5235 -5239 -5239 -5225 -5179 -5195 -5181 -5213 -5212 -5205 -5194 -5195 -5181 -5180 -5179 -5178 -5182 -5183 -5175 -5171 -5164 -5163
-120 -116 -108 -120 -126 -176 -223 -166 -229 -545 -399 -1637 -1097 -951 -1341 -1132 -1387 -1366 -1558 -1842 -1865 -2105 -2139 -2321 -2489 -2378 -2454 -2682 -2927 -2939 -2900 -3156 -3368 -3262 -3359 -3511 -3584 -3658 -3749 -3885 -3924 -3984 -4000 -4069 -4157 -4245 -4263 -4375 -4403 -4435 -4479 -4565 -4608 -4626 -4637 -4643 -4650 -4680 -4676 -4697 -4721 -4724 -4697 -4678 -4687 -4698 -4699 -4710 -4714 -4751 -4749 -4777 -4800 -4780 -4811 -4779 -4816 -4854 -4884 -4911 -4928 -4939 -4946 -4962 -4991 -4968 -4954 -4952 -4936 -4934 -4926 -4930 -4941 -4970 -4974 -4945 -4952 -4958 -4916 -4891 -4941 -5017 -4994 -5014 -5029 -5032 -5034 -5032 -5078 -5078 -5076 -5067 -5070 -5074 -5092 -5097 -5105 -5106 -5090 -5096 -5102 -5102 -5126 -5112 -5138 -5136 -5146 -5148 -5154 -5165 -5177 -5167 -5175 -5172 -5172 -5176 -5181 -5178 -5177 -5177 -5185 -5192 -5198 -5209 -5206 -5210 -5216 -5214 -5215 -5223 -5225 -5260 -5269 -5201 -5207 -5259 -5252 -5251 -5254 -5243 -5241 -5199 -5232 -5229 -5195 -5198 -5207 -5205 -5188 -5184 -5182 -5180
-149 -253 -172 -165 -171 -191 -602 -331 -819 -1513 -1656 -1797 -1928 -1831 -1991 -1862 -2097 -1715 -1718 -2041 -2254 -2357 -2407 -2496 -2672 -2626 -2558 -2711 -2896 -3058 -3209 -3101 -3301 -3498 -3525 -3567 -3667 -3731 -3791 -3873 -4010 -4044 -4118 -4131 -4195 -4276 -4401 -4410 -4469 -4512 -4507 -4553 -4657 -4677 -4677 -4706 -4695 -4706 -4711 -4740 -4755 -4777 -4759 -4739 -4743 -4749 -4748 -4757 -4773 -4784 -4813 -4815 -4838 -4811 -4857 -4847 -4877 -4885 -4920 -4952 -4954 -4956 -4981 -4988 -5003 -4980 -5011 -4960 -5004 -4986 -4970 -4970 -4973 -4972 -4971 -4977 -4980 -4989 -4995 -5036 -5027 -5036 -5011 -5033 -5055 -5043 -5069 -5083 -5079 -5078 -5077 -5081 -5082 -5086 -5089 -5088 -5092 -5096 -5113 -5108 -5121 -5123 -5113 -5119 -5122 -5119 -5146 -5181 -5225 -5138 -5196 -5165 -5173 -5161 -5158 -5174 -5180 -5191 -5189 -5197 -5199 -5206 -5214 -5214 -5216 -5215 -5218 -5219 -5221 -5226 -5231 -5240 -5222 -5224 -5249 -5246 -5245 -5233 -5241 -5241 -5238 -5237 -5249 -5248 -5249 -5229 -5245 -5236 -5232 -5224 -5224 -5220
-181 -217 -755 -709 -1008 -918 -1217 -1395 -1659 -1811 -2027 -2169 -1970 -2115 -2545 -2425 -2616 -2400 -2229 -2082 -2310 -2528 -2654 -2790 -2877 -2819 -2840 -2838 -2968 -3186 -3339 -3401 -3423 -3564 -3635 -3724 -3767 -3838 -3966 -4023 -4065 -4137 -4203 -4240 -4254 -4330 -4395 -4473 -4543 -4575 -4597 -4586 -4627 -4712 -4716 -4739 -4745 -4742 -4759 -4772 -4777 -4813 -4844 -4810 -4795 -4809 -4812 -4814 -4832 -4835 -4837 -4847 -4859 -4848 -4901 -4877 -4907 -4932 -4955 -4958 -4981 -4994 -5000 -5005 -5049 -5038 -4998 -4976 -4980 -5012 -5019 -5022 -5026 -5036 -4982 -4997 -4986 -4998 -5011 -5044 -5087 -5091 -5045 -5057 -5068 -5076 -5070 -5096 -5082 -5105 -5066 -5085 -5106 -5093 -5100 -5098 -5095 -5100 -5113 -5123 -5126 -5130 -5136 -5128 -5126 -5129 -5180 -5253 -5132 -5183 -5177 -5166 -5159 -5169 -5185 -5182 -5181 -5187 -5193 -5199 -5199 -5209 -5213 -5207 -5205 -5219 -5220 -5217 -5208 -5197 -5158 -5203 -5205 -5225 -5214 -5230 -5223 -5216 -5216 -5247 -5244 -5224 -5221 -5221 -5231 -5236 -5233 -5236 -5207 -5267 -5259 -5257
-1406 -1008 -1506 -1687 -1842 -1870 -2210 -2311 -2181 -2239 -2065 -2322 -2420 -2495 -2283 -2479 -2779 -2643 -2170 -2106 -2357 -2689 -2907 -3115 -3101 -3123 -3301 -3204 -3310 -3404 -3515 -3547 -3576 -3579 -3662 -3749 -3853 -3894 -4005 -4063 -4128 -4161 -4227 -4289 -4345 -4420 -4451 -4459 -4503 -4591 -4643 -4686 -4653 -4714 -4741 -4746 -4784 -4782 -4799 -4820 -4818 -4810 -4846 -4884 -4882 -4865 -4859 -4872 -4883 -4877 -4876 -4883 -4907 -4878 -4907 -4900 -4912 -4929 -4948 -4975 -4989 -5007 -5039 -5000 -4994 -5022 -5075 -5020 -5019 -5016 -5012 -5012 -5024 -5017 -5049 -5017 -5057 -5029 -5052 -5055 -5059 -5109 -5073 -5076 -5122 -5103 -5099 -5096 -5085 -5122 -5072 -5087 -5102 -5091 -5118 -5101 -5102 -5105 -5093 -5104 -5125 -5135 -5143 -5159 -5142 -5170 -5256 -5130 -5168 -5175 -5174 -5177 -5180 -5179 -5189 -5199 -5196 -5201 -5204 -5215 -5213 -5216 -5222 -5215 -5211 -5231 -5237 -5225 -5234 -5206 -5213 -5207 -5201 -5228 -5225 -5208 -5210 -5217 -5218 -5227 -5225 -5222 -5220 -5220 -5223 -5215 -5212 -5210 -5210 -5210 -5201 -5203
-1759 -1777 -1722 -2037 -2183 -2261 -2364 -2527 -2469 -2339 -2516 -2548 -2508 -2641 -2578 -2542 -2786 -3077 -2018 -1187 -2258 -2761 -2949 -3250 -3310 -3225 -3441 -3507 -3578 -3678 -3716 -3738 -3712 -3638 -3817 -3846 -3878 -3978 -4042 -4093 -4157 -4213 -4282 -4318 -4393 -4438 -4495 -4547 -4586 -4638 -4647 -4679 -4733 -4734 -4763 -4784 -4789 -4840 -4825 -4831 -4833 -4865 -4864 -4884 -4906 -4907 -4922 -4915 -4923 -4925 -4934 -4922 -4930 -4911 -4937 -4944 -4962 -4959 -4970 -4983 -4978 -4976 -5011 -5060 -5010 -4993 -5005 -5024 -5023 -5033 -5025 -5023 -5035 -5024 -5081 -5035 -5071 -5067 -5088 -5090 -5072 -5100 -5080 -5056 -5039 -5095 -5109 -5102 -5106 -5129 -5087 -5134 -5102 -5099 -5122 -5123 -5124 -5125 -5123 -5124 -5144 -5158 -5152 -5166 -5167 -5164 -5145 -5160 -5183 -5184 -5183 -5184 -5191 -5188 -5194 -5204 -5202 -5207 -5205 -5212 -5219 -5218 -5220 -5213 -5212 -5222 -5241 -5238 -5220 -5218 -5200 -5225 -5242 -5244 -5248 -5246 -5235 -5233 -5227 -5229 -5233 -5228 -5226 -5232 -5225 -5225 -5227 -5226 -5227 -5229 -5231 -5230